ply
format ascii 1.0
element vertex 668
property float x
property float y
property float z
property uchar red
property uchar green
property uchar blue
end_header
0.680233597755432129 -4.18186235427856445 58.3411064147949219 122 118 111
4.60349035263061523 -1.93610644340515137 59.5736236572265625 2 14 29
4.53994417190551758 -1.95570731163024902 59.5589981079101562 18 29 48
5.82159233093261719 -1.75820600986480713 59.5125160217285156 14 40 73
5.81046819686889648 -3.1645972728729248 59.227630615234375 3 15 57
1.97974467277526855 -0.890489101409912109 58.9144439697265625 157 158 153
5.56341028213500977 -2.08538413047790527 59.4943275451660156 1 14 37
2.09199762344360352 -1.1801455020904541 58.8214683532714844 94 86 79
6.32609939575195312 -4.31123495101928711 59.1655998229980469 76 106 127
2.94618916511535645 -4.48193454742431641 58.8282928466796875 151 149 137
2.94618916511535645 -4.48193454742431641 58.8282928466796875 151 149 137
5.20362424850463867 -1.16312873363494873 59.6613197326660156 36 52 88
5.38453769683837891 -4.79160976409912109 59.1076087951660156 139 187 238
6.332916259765625 -4.5358424186706543 59.2457618713378906 45 75 116
3.01499319076538086 -2.33984780311584473 59.132720947265625 183 198 202
4.82373332977294922 -4.34106731414794922 59.1468963623046875 105 102 100
3.04979491233825684 -2.29209804534912109 59.208465576171875 193 208 216
3.26143002510070801 -2.19802570343017578 59.0340232849121094 125 138 136
4.5627293586730957 -0.852120101451873779 59.7631721496582031 125 164 179
5.91474342346191406 -4.56338262557983398 59.2194747924804688 126 183 252
5.37653923034667969 -4.24925756454467773 59.2453842163085938 34 44 62
5.38985300064086914 -4.36530160903930664 59.4818992614746094 44 74 112
6.41554689407348633 -4.07691049575805664 59.2576217651367188 46 66 88
0.161037787795066833 -2.90885519981384277 58.6222572326660156 120 161 212
5.47050237655639648 -3.08580231666564941 59.4569931030273438 118 145 191
5.82814121246337891 -3.07908248901367188 59.3614616394042969 28 39 67
1.20851337909698486 -2.30759119987487793 58.6121406555175781 61 91 129
-1.50391519069671631 -2.61611437797546387 58.4127960205078125 162 163 157
2.01643276214599609 -2.08533859252929688 58.8105697631835938 102 97 93
4.96676969528198242 -1.36720812320709229 59.5665512084960938 48 65 95
5.24537420272827148 -0.939873695373535156 59.6353607177734375 42 63 90
-1.46806502342224121 -2.42921972274780273 58.4362907409667969 0 0 0
7.76847737142816186e-05 -2.97242641448974609 58.84234619140625 52 71 94
2.84373617172241211 -1.22142875194549561 58.9967613220214844 128 133 128
5.39198684692382812 -4.4019012451171875 59.3568458557128906 62 79 111
5.23827219009399414 -2.79943490028381348 59.6532173156738281 3 10 25
5.77314472198486328 -4.22853803634643555 59.2155914306640625 133 156 198
4.86003255844116211 -1.91430461406707764 59.5812110900878906 33 48 65
-1.55828666687011719 -2.31300783157348633 4.53963518142700195 73 95 124
2.83076143264770508 -1.29362428188323975 58.6376228332519531 129 131 120
0.621894598007202148 -2.56316995620727539 59.0680770874023438 86 102 146
5.26160526275634766 -0.978517234325408936 59.5645217895507812 86 105 145
5.02654170989990234 -4.24585151672363281 59.2098922729492188 129 119 117
2.60088872909545898 -2.69867086410522461 59.0767173767089844 147 149 146
1.67421853542327881 -1.99066483974456787 58.9128532409667969 140 137 122
5.12282180786132812 -4.55846118927001953 59.0204849243164062 119 120 123
-1.16198718547821045 -2.26754307746887207 58.4849700927734375 0 0 0
1.6142038106918335 -2.6846926212310791 58.8340263366699219 90 101 124
4.80796003341674805 -5.59706735610961914 59.5897598266601562 148 148 150
5.93255329132080078 -0.686825096607208252 59.3772430419921875 48 69 97
4.22375202178955078 -2.7462608814239502 58.8594551086425781 135 132 127
2.15232276916503906 -0.832309961318969727 58.75457763671875 131 131 121
2.82646584510803223 -0.815481424331665039 58.4220809936523438 152 157 150
5.03512716293334961 -2.05554842948913574 59.5399055480957031 40 55 76
5.01224946975708008 -3.75408768653869629 59.51617431640625 11 15 20
3.8999321460723877 1.74515926837921143 58.2864494323730469 126 118 103
-1.93561887741088867 -1.18808627128601074 58.4405326843261719 143 131 115
6.54198789596557617 -2.41196918487548828 59.390045166015625 41 41 42
5.09199190139770508 -1.26924264430999756 59.6287384033203125 57 73 100
5.30912446975708008 -1.66455590724945068 59.6162986755371094 108 156 210
5.35394573211669922 -2.67178702354431152 59.5066947937011719 84 120 159
6.54746532440185547 -4.21388149261474609 58.9521598815917969 144 201 248
-0.278748869895935059 -4.8498539924621582 58.1805686950683594 145 144 140
5.70692873001098633 -1.60587716102600098 59.5472335815429688 113 154 209
7.6042170524597168 -4.14424610137939453 59.2985992431640625 123 111 95
0.744389832019805908 -3.10724306106567383 58.4791603088378906 177 202 213
3.63624763488769531 -0.958123922348022461 58.8062591552734375 66 65 63
5.72674131393432617 -4.67609262466430664 59.1620368957519531 68 112 159
5.67031526565551758 -2.40670609474182129 59.4779548645019531 77 121 174
5.66963672637939453 -2.01132583618164062 59.3161048889160156 2 11 44
4.57319307327270508 -1.63689839839935303 59.7105522155761719 3 15 31
6.59412765502929688 -3.75219917297363281 59.2316665649414062 38 52 76
6.16058158874511719 -1.32093095779418945 59.4830360412597656 54 61 72
4.74523162841796875 -0.837162375450134277 59.5714569091796875 214 253 255
5.53496122360229492 -0.896585345268249512 59.6851005554199219 21 45 73
5.23731708526611328 -2.02405142784118652 59.5774917602539062 98 142 195
4.23800182342529297 -2.4637448787689209 59.0955314636230469 77 73 70
4.91912984848022461 -1.22501218318939209 59.5535926818847656 58 80 111
5.89292049407958984 -2.60050058364868164 59.4276885986328125 43 56 74
6.18014669418334961 -1.25664305686950684 59.5822601318359375 119 119 131
5.54880619049072266 -1.04396700859069824 59.5938758850097656 27 42 75
4.94698333740234375 -0.811304986476898193 59.6416969299316406 169 216 255
6.03059864044189453 -4.15950918197631836 59.2624435424804688 124 141 172
2.46102023124694824 1.65332674980163574 58.3447914123535156 122 113 98
6.60453987121582031 -4.37984657287597656 58.9983253479003906 217 255 255
5.10735225677490234 -4.48891115188598633 58.8661880493164062 70 71 75
5.21297502517700195 -4.47939920425415039 59.2521286010742188 22 31 46
5.87760400772094727 -4.41263532638549805 59.2297515869140625 133 185 249
2.0737917423248291 -4.37784194946289062 59.0852699279785156 157 157 147
1.41348743438720703 -0.302796602249145508 58.4863166809082031 110 111 110
0.642466425895690918 -1.82729709148406982 58.79345703125 162 160 161
6.19836139678955078 -3.07897758483886719 59.2916717529296875 44 58 74
3.41927981376647949 -6.02978801727294922 59.5052566528320312 150 144 134
3.00110650062561035 -1.64159023761749268 58.7875595092773438 155 159 158
2.80565333366394043 -6.08556461334228516 59.5080337524414062 153 157 156
3.8970191478729248 -6.03726387023925781 59.5628395080566406 137 125 113
5.1251978874206543 -5.96209287643432617 59.5570640563964844 147 146 142
4.72038555145263672 -2.9403529167175293 59.4119300842285156 109 96 89
6.22185373306274414 -4.23277759552001953 59.1721763610839844 214 255 255
5.81899642944335938 -5.8660283088684082 59.475982666015625 123 113 103
0.209344610571861267 -4.1001434326171875 58.7944068908691406 139 139 139
4.95639991760253906 -3.65001082420349121 59.3301200866699219 0 0 0
2.90662574768066406 -2.37349510192871094 59.0065155029296875 209 218 216
6.56997156143188477 -0.771984517574310303 59.87493896484375 121 121 121
4.96038961410522461 -5.83275461196899414 59.4646148681640625 145 141 142
5.92114734649658203 -4.58233642578125 59.1856307983398438 180 236 255
1.46484410762786865 -2.18741178512573242 58.6994743347167969 103 143 167
6.11688375473022461 -2.30826354026794434 59.4406585693359375 28 40 63
5.74412393569946289 -4.4796295166015625 59.1998863220214844 143 170 170
5.31666088104248047 -2.12007331848144531 59.549530029296875 129 163 198
5.50656890869140625 -0.971557438373565674 59.6933097839355469 81 107 144
4.64520549774169922 -1.03734815120697021 59.652099609375 209 251 255
5.66327428817749023 -1.58088541030883789 59.6491966247558594 93 134 187
0.352449655532836914 -2.80546092987060547 58.57611083984375 74 90 116
2.07290434837341309 -1.57450449466705322 58.6927413940429688 119 115 112
5.92191648483276367 -2.56841373443603516 59.3900985717773438 2 20 45
4.27001619338989258 -1.02954387664794922 59.6252975463867188 151 190 221
-0.256150335073471069 -4.48051118850708008 58.3757896423339844 150 148 145
3.20813584327697754 -2.31649994850158691 59.4631729125976562 131 132 147
6.31033420562744141 -4.39240884780883789 59.2298126220703125 207 255 255
0.404320359230041504 -6.21199750900268555 59.4145164489746094 154 158 157
0.215018436312675476 -6.10176515579223633 58.7117881774902344 139 131 120
0.461702078580856323 -3.27782511711120605 59.0569381713867188 154 182 200
5.66891050338745117 -4.55801773071289062 59.2626266479492188 198 249 255
5.33713197708129883 -2.63925862312316895 59.9618721008300781 0 0 0
0.995450675487518311 -6.17467880249023438 59.5847816467285156 149 149 149
4.82022190093994141 -2.69472169876098633 59.6017799377441406 8 16 38
0.999753892421722412 -6.16194391250610352 59.4849395751953125 149 149 149
-0.852841019630432129 -4.03609704971313477 57.9718589782714844 151 152 147
6.36547470092773438 -4.50519371032714844 59.1599082946777344 56 93 147
6.45842409133911133 -4.47263669967651367 59.1056671142578125 45 81 129
6.27679109573364258 -4.32860231399536133 58.9881935119628906 157 210 255
0.244902074337005615 -1.53046119213104248 58.8539085388183594 154 150 152
6.18939352035522461 -4.22275304794311523 59.1642341613769531 161 209 255
6.1090235710144043 -4.10024785995483398 59.2732353210449219 140 166 203
6.6447138786315918 -4.00226783752441406 59.0963516235351562 208 249 255
1.50355660915374756 -2.73055076599121094 58.8505477905273438 61 73 70
1.64684104919433594 -2.65089273452758789 58.7780799865722656 67 75 83
0.561481058597564697 -2.66277122497558594 58.3822250366210938 86 126 175
3.47475218772888184 -2.17600822448730469 59.1372222900390625 119 120 115
1.66921842098236084 -2.62328338623046875 58.9903945922851562 227 246 255
4.23413324356079102 -1.10302281379699707 59.6430549621582031 35 44 59
4.54698371887207031 -1.20943868160247803 59.848785400390625 100 129 163
5.73080253601074219 -0.985830605030059814 59.6088600158691406 52 72 101
5.03949499130249023 -1.05781710147857666 59.6584739685058594 73 91 116
4.94793701171875 -0.963448107242584229 59.6229515075683594 68 98 109
5.27721691131591797 -0.87257075309753418 59.6498794555664062 32 48 82
5.42982769012451172 -0.975332915782928467 59.6925926208496094 18 30 56
4.58522558212280273 -2.35867762565612793 59.4850730895996094 33 29 39
4.77718782424926758 -0.769756853580474854 59.6941795349121094 210 255 255
-2.24944210052490234 -2.05598068237304688 58.0212593078613281 163 156 137
5.43842267990112305 -4.8043975830078125 59.2104072570800781 209 254 255
1.46927928924560547 -5.32068920135498047 58.6446723937988281 151 150 146
5.2272801399230957 -4.41682815551757812 59.3751068115234375 47 60 78
1.17288923263549805 0.593563377857208252 58.3941497802734375 136 130 115
4.01929998397827148 1.96979677677154541 58.2056617736816406 137 141 142
6.22112178802490234 -4.07818603515625 59.2324676513671875 33 57 98
6.46966695785522461 -4.41640901565551758 59.1920585632324219 148 201 250
6.71573972702026367 -2.9510805606842041 59.4346542358398438 42 39 42
6.09019756317138672 -1.73577499389648438 59.5195159912109375 31 43 59
6.61267852783203125 -2.72111344337463379 59.2266960144042969 37 36 37
1.34850394725799561 -2.7707219123840332 58.7832183837890625 162 190 207
5.46611213684082031 -2.52461552619934082 59.428009033203125 116 158 211
1.68508529663085938 -2.53541970252990723 58.9827919006347656 83 108 130
5.37941646575927734 -4.83479595184326172 59.3487739562988281 106 148 196
2.56935524940490723 -3.06453800201416016 58.6776580810546875 145 145 139
3.69511270523071289 -0.822138130664825439 58.7160415649414062 118 111 105
1.83167970180511475 -5.68894672393798828 59.1441650390625 81 81 76
-2.66935062408447266 -3.52549624443054199 57.7976493835449219 171 179 169
5.23914194107055664 -1.09943795204162598 59.6619148254394531 76 91 131
5.39253664016723633 -0.596670567989349365 59.6695747375488281 214 255 255
5.92954540252685547 -4.49254560470581055 59.1369361877441406 154 209 255
2.74625658988952637 -3.86495471000671387 59.0187301635742188 163 164 166
6.29301166534423828 -4.31572389602661133 59.2272109985351562 205 255 255
6.74577760696411133 -4.25762844085693359 59.075439453125 108 151 206
1.63552570343017578 -3.43211936950683594 58.6165962219238281 137 134 125
4.63155412673950195 -2.56035208702087402 59.5723037719726562 82 80 68
5.99279308319091797 -2.34723186492919922 59.4060287475585938 0 18 60
4.67361879348754883 -1.81551849842071533 59.534332275390625 28 36 49
-2.84414982795715332 1.88234734535217285 57.2520866394042969 141 133 111
5.18214845657348633 -1.01554906368255615 59.677154541015625 73 96 129
5.54482698440551758 -0.576453685760498047 59.7025146484375 214 255 255
-0.947202146053314209 -1.10278701782226562 58.2862892150878906 151 148 133
4.10516929626464844 -2.13201236724853516 58.8821563720703125 84 79 77
1.81023359298706055 -5.70715475082397461 59.2014198303222656 169 168 168
6.12267923355102539 -4.39902877807617188 59.1195182800292969 213 255 255
2.83668065071105957 -5.74881172180175781 59.4463729858398438 161 165 166
4.83522939682006836 -5.61950445175170898 59.6955184936523438 148 152 153
6.66601085662841797 -4.4020228385925293 58.9855575561523438 37 71 106
6.69808149337768555 -3.06274676322937012 59.3120231628417969 122 129 138
0.423320591449737549 -0.0370907746255397797 58.2545089721679688 151 152 137
4.87026500701904297 -2.56155157089233398 59.5124282836914062 30 33 52
0.691216468811035156 -4.28104686737060547 58.8025627136230469 151 149 137
6.70055866241455078 -4.33102989196777344 58.9591102600097656 217 255 255
5.1255340576171875 -3.89708232879638672 59.5386924743652344 2 13 29
2.0346825122833252 -5.99372243881225586 59.2767829895019531 150 155 155
4.83127403259277344 -3.82721424102783203 59.3541450500488281 116 105 99
6.1881861686706543 -3.1087493896484375 59.3146095275878906 33 50 68
6.69562244415283203 -3.05699062347412109 59.2396049499511719 111 119 142
5.32381820678710938 -1.95167124271392822 59.5614471435546875 1 14 40
0.866392314434051514 -4.11412334442138672 57.9018936157226562 146 151 150
0.296454876661300659 -3.3116302490234375 58.6972465515136719 65 83 102
6.65989494323730469 -3.1364893913269043 59.1265869140625 6 13 23
0.599937081336975098 -3.21407103538513184 58.998291015625 91 96 81
-1.51363813877105713 -0.481065243482589722 57.8715324401855469 161 160 155
3.27853226661682129 -4.98814630508422852 59.2925262451171875 146 150 151
5.83003759384155273 -2.12441682815551758 59.4002418518066406 0 5 39
6.5663299560546875 -3.0495295524597168 59.2869338989257812 29 34 53
5.87051010131835938 -2.38626289367675781 59.4248886108398438 95 139 192
4.80376482009887695 -2.77040624618530273 59.4874114990234375 57 65 81
6.18162918090820312 -4.57186412811279297 59.3151626586914062 213 254 255
5.85681772232055664 -1.90913629531860352 59.48052978515625 52 61 80
5.65312862396240234 -3.25344300270080566 59.425445556640625 131 163 201
4.40418386459350586 -1.24264514446258545 59.6755104064941406 42 69 108
4.36609935760498047 -1.22686862945556641 60.1841468811035156 57 79 95
0.782093048095703125 -3.91921806335449219 59.0588188171386719 122 119 120
1.19828534126281738 -4.96686935424804688 58.3266448974609375 159 160 154
5.07103538513183594 -4.10093116760253906 59.35333251953125 93 83 81
5.66561269760131836 -0.676331281661987305 59.631256103515625 15 39 68
5.03460550308227539 -2.43510794639587402 59.6029281616210938 30 35 54
0.0271128714084625244 -2.89680075645446777 58.7533645629882812 82 105 127
4.79940414428710938 -2.76893782615661621 59.4156112670898438 55 65 78
-0.610675990581512451 -3.89888310432434082 58.6204986572265625 87 82 72
4.78475141525268555 -2.53677892684936523 59.5632209777832031 25 37 53
6.10240316390991211 -4.36692905426025391 59.2024497985839844 154 210 255
6.40987110137939453 -4.47681093215942383 59.1393547058105469 218 255 255
5.9346466064453125 -4.26167058944702148 59.0599441528320312 46 66 99
6.03433895111083984 -4.22298526763916016 59.1961402893066406 52 73 104
4.29328441619873047 -1.42319333553314209 59.8843498229980469 106 99 93
6.32179784774780273 -3.9897615909576416 59.2165451049804688 187 213 254
6.38148641586303711 -3.94519853591918945 59.14984130859375 99 123 153
6.3694758415222168 -3.92191720008850098 59.2042236328125 33 53 77
-0.818586468696594238 -5.27022647857666016 58.1175537109375 162 156 148
0.936430871486663818 -3.02820467948913574 58.5803718566894531 98 110 133
-0.0117338504642248154 -3.25154328346252441 58.4949913024902344 151 168 200
5.41357612609863281 -4.90420389175415039 59.4078292846679688 38 59 86
0.329986155033111572 -3.34130525588989258 58.5526580810546875 99 134 164
5.47907447814941406 -3.03717708587646484 59.361297607421875 0 14 45
2.70413017272949219 -1.93476021289825439 58.9564857482910156 144 150 150
0.0921683311462402344 -2.85407257080078125 58.5706558227539062 68 74 82
0.77381211519241333 -2.60529494285583496 58.6927909851074219 98 136 185
5.83782720565795898 -4.53293800354003906 59.195892333984375 129 188 249
0.7675132155418396 -2.58342671394348145 58.6381721496582031 109 140 187
0.999562740325927734 -2.42327213287353516 58.7967720031738281 40 66 106
1.31693935394287109 -2.35395169258117676 58.8461036682128906 128 169 213
6.79676675796508789 -4.0270543098449707 59.3232192993164062 209 251 255
5.12707424163818359 -2.0310816764831543 59.5576324462890625 94 122 152
4.52161693572998047 -1.42369401454925537 59.6605644226074219 63 83 123
1.30755627155303955 -1.93150472640991211 58.5828399658203125 138 125 108
4.788421630859375 -1.04100978374481201 59.6175308227539062 192 224 236
4.62148094177246094 -0.997578978538513184 59.7305870056152344 212 255 255
5.54094171524047852 -0.908124804496765137 59.6087226867675781 34 57 101
5.12317180633544922 -4.1582636833190918 59.4632148742675781 32 34 47
5.54437398910522461 -4.62787008285522461 59.3450584411621094 214 254 255
7.76996040344238281 -1.42837154865264893 59.4824485778808594 0 0 0
6.34473371505737305 -2.60526418685913086 59.3425674438476562 0 0 0
-0.0855061709880828857 -3.05982494354248047 58.0904922485351562 79 110 139
4.37520074844360352 -0.913904726505279541 59.6884193420410156 209 252 255
0.0428620539605617523 -3.35859251022338867 59.0525894165039062 172 192 219
4.6915125846862793 -0.787638485431671143 59.7710380554199219 154 207 250
5.02090072631835938 -0.72524183988571167 59.6598243713378906 192 241 255
5.83738136291503906 -0.629297912120819092 59.5868415832519531 53 82 112
6.61822032928466797 -4.07149648666381836 59.2241363525390625 211 255 255
6.00201129913330078 -0.697176098823547363 59.6525840759277344 61 80 104
-1.95308148860931396 -1.70765137672424316 58.6612358093261719 0 0 0
5.64536046981811523 -4.74686384201049805 59.1045379638671875 208 255 255
5.99478578567504883 -4.38247776031494141 59.1861190795898438 199 252 255
3.57629489898681641 -3.1624150276184082 59.5101661682128906 0 0 0
6.05344533920288086 -4.35677385330200195 59.2571563720703125 212 255 255
5.37396955490112305 -0.543649077415466309 59.8131752014160156 175 223 255
5.73590469360351562 -4.24599647521972656 59.1779327392578125 25 41 67
5.44119596481323242 -4.68065977096557617 59.3199539184570312 172 209 246
5.87157678604125977 -4.19069480895996094 59.2509765625 96 116 149
1.81749641895294189 -1.44978642463684082 58.8654251098632812 159 165 163
6.47168159484863281 -2.2596430778503418 59.379486083984375 61 64 69
4.77850246429443359 -0.729125678539276123 59.6632118225097656 56 96 145
6.38962411880493164 -4.08817100524902344 59.1715927124023438 185 215 238
5.11625576019287109 -3.85102295875549316 59.3236083984375 32 41 58
5.28142356872558594 -1.66183102130889893 59.6286048889160156 2 25 70
5.05813264846801758 -0.876510977745056152 59.6113052368164062 167 205 242
6.14473152160644531 -3.98757815361022949 59.1088142395019531 15 33 60
5.91213321685791016 -0.760009169578552246 59.5592155456542969 60 80 111
5.84039545059204102 -3.57261180877685547 59.2543678283691406 56 58 71
5.50784921646118164 -1.5698322057723999 59.5457077026367188 0 20 69
3.08020997047424316 -0.590656280517578125 58.9271926879882812 143 143 131
0.112708136439323425 -3.54087567329406738 58.8035812377929688 120 111 94
0.800921380519866943 -3.0606231689453125 58.6111373901367188 176 204 216
5.53148555755615234 -3.02829360961914062 59.3668403625488281 91 124 171
6.51940679550170898 -4.1982579231262207 59.1068954467773438 201 255 255
3.79983115196228027 -0.536644816398620605 59.0880241394042969 137 142 137
0.018248293548822403 -2.94944190979003906 58.3673210144042969 76 94 106
5.07337570190429688 -2.78999090194702148 59.4372749328613281 21 37 70
5.32517671585083008 -2.70282769203186035 59.5579071044921875 52 67 95
4.7504124641418457 -1.16776192188262939 59.6406593322753906 88 113 144
5.25156068801879883 -2.5611121654510498 59.5624465942382812 0 2 23
3.18618273735046387 -2.23079586029052734 59.1764602661132812 137 147 156
0.080418907105922699 -2.95122194290161133 58.7813224792480469 85 121 170
1.44963598251342773 -2.11085653305053711 58.8316879272460938 43 62 76
1.22464561462402344 -2.99661135673522949 58.8014907836914062 132 106 83
5.1202082633972168 -1.83230757713317871 59.5703544616699219 130 163 214
3.17316675186157227 -2.99990153312683105 59.0157318115234375 129 126 109
-0.0392893366515636444 -3.21732687950134277 58.7788124084472656 147 169 204
6.09241342544555664 -1.65866684913635254 59.5186195373535156 24 33 50
4.60634613037109375 -1.54280292987823486 59.7127304077148438 51 61 86
4.42747306823730469 -1.49125301837921143 59.6124153137207031 17 36 77
5.07500362396240234 -0.816002368927001953 59.598114013671875 222 255 255
4.70402812957763672 -1.4050743579864502 59.5955314636230469 97 122 158
4.57167196273803711 -1.38990426063537598 59.575103759765625 58 82 120
6.20543527603149414 -1.25513863563537598 59.5743370056152344 52 46 50
4.43328571319580078 -0.944733679294586182 59.7153968811035156 209 251 255
1.35263633728027344 -5.10943937301635742 58.083038330078125 0 0 0
5.13241386413574219 -1.09765827655792236 59.6869354248046875 59 79 116
3.39216971397399902 -1.37907576560974121 59.0261650085449219 129 120 105
5.51576662063598633 -0.791167497634887695 59.5824394226074219 58 82 109
5.60307836532592773 -0.647934854030609131 59.5680046081542969 217 255 255
2.10369491577148438 -1.60535323619842529 58.5459022521972656 149 151 145
5.33684778213500977 -0.612042725086212158 59.5981063842773438 143 199 245
5.46726131439208984 -4.7957763671875 59.1770782470703125 164 211 255
6.42536115646362305 -4.44263124465942383 59.2216339111328125 207 250 255
4.96483325958251953 -3.05916476249694824 59.2970314025878906 20 32 47
5.51043605804443359 -4.29202890396118164 59.222869873046875 92 115 156
6.09455251693725586 -3.85258054733276367 59.0997695922851562 47 50 64
2.54017972946166992 -2.82851791381835938 59.1205024719238281 147 149 148
6.54565334320068359 -4.17467641830444336 59.1738929748535156 156 210 255
4.41651391983032227 -1.634224534034729 59.639862060546875 41 53 69
4.72739171981811523 -1.31281089782714844 59.6865158081054688 30 50 75
-0.249491438269615173 -5.47735738754272461 57.90521240234375 152 150 148
5.04281759262084961 -1.33346319198608398 59.6516685485839844 8 29 58
4.91949796676635742 -1.18583202362060547 59.5942535400390625 41 65 101
-0.429050296545028687 -0.778458058834075928 58.214813232421875 157 158 153
5.56068611145019531 -0.418419569730758667 59.6514739990234375 78 118 155
5.44626617431640625 -0.922807157039642334 59.6287269592285156 32 47 76
4.33128643035888672 -1.42633676528930664 59.73138427734375 25 30 49
0.0268957596272230148 -3.27470302581787109 58.7945709228515625 96 128 167
6.11933517456054688 -1.06796622276306152 59.5131340026855469 91 100 110
5.36147594451904297 -5.13301897048950195 59.2969017028808594 144 142 143
5.05817031860351562 -0.761083364486694336 59.6648025512695312 218 255 255
3.73489880561828613 -0.641901910305023193 58.8807830810546875 133 132 128
5.60263156890869141 -0.716973423957824707 59.6725578308105469 32 56 81
1.98189544677734375 -5.91116046905517578 59.1249732971191406 163 161 163
6.54330730438232422 -4.0457916259765625 59.2314071655273438 178 214 247
4.99293613433837891 -1.11887252330780029 59.3797950744628906 33 58 95
1.57271194458007812 -5.43397808074951172 58.9593124389648438 160 155 152
5.16074848175048828 -3.36124658584594727 59.4760665893554688 33 45 61
6.75076580047607422 -3.72239542007446289 59.0943183898925781 13 12 34
3.19719958305358887 -3.30751252174377441 59.0287437438964844 155 155 158
3.12167954444885254 -4.93016195297241211 59.3240699768066406 160 158 155
6.12104082107543945 -4.39969205856323242 59.0984344482421875 213 255 255
6.11061334609985352 -4.32963943481445312 59.1599578857421875 195 253 255
6.21068334579467773 -4.31891536712646484 59.1769294738769531 186 244 255
0.109667174518108368 -3.46509647369384766 58.3915443420410156 47 51 58
6.81787538528442383 -5.80613899230957031 60.0226898193359375 141 141 140
6.45251369476318359 -3.12770938873291016 59.3626823425292969 20 31 55
5.96489858627319336 -4.30926895141601562 59.2436790466308594 151 193 243
1.33718752861022949 -2.30555891990661621 58.898284912109375 200 236 254
4.39125251770019531 -1.63734948635101318 59.7044525146484375 23 25 31
2.01608872413635254 -0.787136971950531006 58.5759658813476562 135 133 128
5.59334850311279297 -0.542326569557189941 59.7598152160644531 161 211 255
5.20384550094604492 -0.673247933387756348 59.6996421813964844 210 255 255
5.33952188491821289 -4.29513311386108398 59.2241287231445312 23 39 65
-0.814996719360351562 -1.87060558795928955 58.3235511779785156 176 180 174
5.78685760498046875 -1.00885605812072754 59.3869972229003906 50 76 103
6.30736827850341797 -1.75196993350982666 59.4973640441894531 12 22 34
1.45884466171264648 -2.19194793701171875 58.8840713500976562 19 35 45
5.90578603744506836 -4.60310888290405273 59.26983642578125 160 212 255
6.24441099166870117 -4.02810811996459961 59.2742347717285156 109 141 180
5.45398998260498047 -4.32236289978027344 59.210174560546875 31 51 84
1.39808833599090576 -5.32674503326416016 59.340972900390625 131 125 124
-1.29836165904998779 0.292689323425292969 57.8798370361328125 159 161 157
6.48045825958251953 -3.96426033973693848 59.3781356811523438 87 113 150
5.51669979095458984 -2.23771429061889648 59.5212364196777344 21 25 38
4.69644546508789062 -1.28861761093139648 59.8022041320800781 68 91 122
6.59920930862426758 -4.00394916534423828 59.0602493286132812 218 254 255
1.59398543834686279 -5.38944244384765625 59.0324745178222656 134 121 106
2.85202264785766602 -1.08820259571075439 59.5432205200195312 0 0 0
0.0378061197698116302 -2.94064974784851074 58.5621757507324219 78 113 127
5.59859514236450195 -2.77672815322875977 59.4120292663574219 20 32 54
2.12410306930541992 -6.03021097183227539 59.33795166015625 134 123 119
6.51653051376342773 -4.16240644454956055 59.2059707641601562 158 211 255
-1.88826870918273926 -1.6724250316619873 57.8466110229492188 162 166 160
1.79093801975250244 -1.67889499664306641 59.00372314453125 150 151 153
3.01843738555908203 -4.76605653762817383 58.6585426330566406 148 149 144
5.57079172134399414 -0.632898390293121338 59.6185226440429688 189 236 255
1.13998830318450928 -5.93498849868774414 59.1705551147460938 134 126 113
2.78328037261962891 -1.07604742050170898 58.8234748840332031 113 105 95
5.67624807357788086 -4.30449867248535156 59.2604560852050781 23 38 60
-1.73544371128082275 -3.86196804046630859 58.5356330871582031 158 160 159
5.67702770233154297 -4.4535670280456543 59.2890243530273438 163 219 255
-1.66862905025482178 -2.93387436866760254 58.4652481079101562 157 150 132
3.11230015754699707 -2.078399658203125 58.9700088500976562 132 129 124
5.53529596328735352 -1.52985513210296631 59.6053390502929688 6 15 32
2.44211077690124512 -5.511566162109375 59.5727424621582031 144 142 143
5.94010734558105469 -4.56819868087768555 59.3365516662597656 129 183 247
0.21304716169834137 -2.81353020668029785 58.4690361022949219 58 72 102
-1.69700837135314941 -4.57622909545898438 58.7266578674316406 154 156 155
1.96573066711425781 -0.681374251842498779 58.7821846008300781 102 104 99
5.19703340530395508 -1.21028852462768555 59.5347061157226562 80 106 144
0.0324868075549602509 -2.96812748908996582 58.0976753234863281 110 144 190
-0.822420954704284668 -3.2786872386932373 58.6557655334472656 146 148 143
-0.40254133939743042 -5.22561025619506836 58.05523681640625 147 147 145
2.20319628715515137 -1.12827038764953613 59.1260528564453125 0 0 0
5.5652923583984375 -2.81723260879516602 59.5883522033691406 13 20 36
-0.0173858236521482468 -3.27070331573486328 59.13995361328125 90 101 123
5.51583099365234375 -5.18759775161743164 59.499725341796875 115 106 91
0.80698317289352417 -2.03391218185424805 58.7327995300292969 116 105 75
-1.93547749519348145 -1.18454921245574951 58.4271392822265625 150 137 119
0.723619997501373291 -1.22530078887939453 58.3326301574707031 135 124 106
3.99744009971618652 -2.85467314720153809 59.5740470886230469 133 134 128
5.30721855163574219 -1.08710980415344238 59.6201400756835938 76 96 129
6.63040304183959961 -4.29619026184082031 59.2038955688476562 211 255 255
5.33978271484375 -4.81632184982299805 59.3190116882324219 233 254 255
1.11135196685791016 -2.21833705902099609 58.8539352416992188 118 105 86
5.37500810623168945 -4.09770584106445312 59.3227157592773438 16 28 38
4.4103693962097168 -1.52022862434387207 59.6772346496582031 21 33 76
5.21595335006713867 -1.69031226634979248 59.5992851257324219 4 27 70
1.59610247611999512 -3.63367676734924316 59.0026435852050781 147 139 128
6.1071319580078125 -2.83615899085998535 59.353546142578125 57 90 136
5.20059537887573242 -4.51636171340942383 59.2737808227539062 36 39 45
4.97626638412475586 -3.10487985610961914 59.4580154418945312 74 80 99
6.09545755386352539 -1.65779960155487061 59.5439987182617188 26 33 51
2.3126981258392334 -0.312022626399993896 58.639892578125 176 186 185
0.309689968824386597 -5.75370073318481445 58.21820068359375 148 147 152
5.20873069763183594 -1.83489179611206055 59.5055694580078125 106 145 181
4.63111686706542969 -0.985578000545501709 59.6960601806640625 214 255 255
5.23011255264282227 -1.17504513263702393 59.664520263671875 196 220 251
2.27765917778015137 -3.04749846458435059 58.8291549682617188 122 112 100
4.93827724456787109 -1.14260554313659668 59.5664329528808594 165 192 231
4.7995452880859375 -1.37209498882293701 59.6141777038574219 21 34 64
0.658390939235687256 -0.946687161922454834 58.4312973022460938 156 161 156
1.85297942161560059 -0.891499519348144531 58.7100944519042969 136 125 109
0.902893960475921631 -2.47621583938598633 58.5436592102050781 78 107 146
5.16590595245361328 -4.4136505126953125 59.310394287109375 68 73 86
5.09036397933959961 -4.07871007919311523 59.3886756896972656 29 24 30
4.71164846420288086 -1.40963208675384521 59.7035102844238281 107 122 155
-0.0416538454592227936 -5.11587238311767578 58.1195259094238281 144 144 146
-1.53212523460388184 -3.95379304885864258 57.966552734375 159 160 154
0.676500558853149414 -2.7173159122467041 58.5898094177246094 146 193 245
2.49564099311828613 -0.739944756031036377 59.0191078186035156 136 125 105
-1.37435603141784668 -2.09457850456237793 58.6097259521484375 159 163 157
4.75941371917724609 -1.14565956592559814 59.6866722106933594 54 76 117
-0.00781854894012212753 -2.83787798881530762 58.235931396484375 67 96 134
-1.57135152816772461 -4.63639402389526367 58.5481796264648438 153 158 152
-1.16786253452301025 -5.09160423278808594 57.8311080932617188 138 130 117
5.20083284378051758 -1.04976546764373779 59.5998992919921875 43 60 86
4.33815956115722656 -1.07403433322906494 59.6613044738769531 227 251 255
0.927454948425292969 -5.95852422714233398 59.399566650390625 146 145 143
-0.887993693351745605 -3.19815731048583984 58.4655685424804688 151 158 151
5.29020118713378906 -4.56623554229736328 59.3135871887207031 58 78 103
1.3707878589630127 -2.2736504077911377 58.6774826049804688 98 137 170
5.56345796585083008 -4.57582902908325195 59.3015518188476562 205 254 255
0.36852419376373291 0.507412910461425781 58.1669502258300781 150 155 149
6.83903121948242188 -4.29006433486938477 59.1019668579101562 217 255 255
6.15849018096923828 -4.52576446533203125 59.1703529357910156 139 192 237
-1.26102745532989502 -5.54807281494140625 58.3089752197265625 150 152 146
5.68017482757568359 -4.45449590682983398 59.3118362426757812 163 219 255
-1.34718775749206543 -2.45576715469360352 58.302886962890625 167 171 164
5.75326061248779297 -4.32616472244262695 59.1342544555664062 22 55 74
5.36811923980712891 -4.94032859802246094 59.3376655578613281 53 49 48
6.00781917572021484 -4.48884010314941406 59.2862586975097656 145 199 255
6.47397661209106445 -4.32755422592163086 59.1398429870605469 158 212 255
6.57383966445922852 -4.33716154098510742 59.2061767578125 146 200 252
-1.41350352764129639 0.102915845811367035 57.8994674682617188 166 170 168
3.97371578216552734 -2.28265237808227539 58.7720756530761719 0 0 0
5.72040033340454102 -4.22311115264892578 59.2696571350097656 38 52 79
6.42035531997680664 -4.17199468612670898 59.2331123352050781 213 255 255
6.66719675064086914 -4.04926919937133789 59.2368354797363281 139 194 250
6.30259227752685547 -3.93477463722229004 59.2693748474121094 22 37 75
5.20604324340820312 -4.39799118041992188 59.4388847351074219 21 34 50
3.95138216018676758 -1.84338760375976562 59.008392333984375 151 154 152
5.44098186492919922 -4.27985858917236328 59.3539924621582031 4 19 48
-0.00796280801296234131 -3.26978516578674316 58.2775802612304688 73 88 115
5.71175050735473633 -4.29347705841064453 59.3196830749511719 17 31 60
0.481229245662689209 -2.59660100936889648 58.5442466735839844 27 36 62
1.00711202621459961 -4.69035196304321289 58.3381919860839844 154 164 165
1.57064962387084961 -2.67224550247192383 58.8773384094238281 226 243 245
4.67302560806274414 -1.10629928112030029 59.6572189331054688 55 83 111
5.64185333251953125 -2.34822177886962891 59.4337196350097656 72 95 133
1.37275111675262451 -2.27788352966308594 58.8741226196289062 88 120 144
2.01459932327270508 -2.17905259132385254 58.9055099487304688 103 98 94
2.39375686645507812 0.145399048924446106 58.5094757080078125 121 120 115
5.19665622711181641 -1.67108619213104248 59.5693855285644531 23 40 66
5.63747262954711914 -2.08585000038146973 59.2238578796386719 32 41 60
4.36950302124023438 -1.48856258392333984 59.7589530944824219 105 121 155
4.66287899017333984 -1.51512730121612549 59.7433853149414062 10 26 49
4.50193977355957031 -1.47631502151489258 59.6964454650878906 32 51 88
2.57565164566040039 -3.07658791542053223 58.7999153137207031 142 143 136
2.17858719825744629 -6.15759706497192383 59.3055343627929688 153 158 151
4.49529170989990234 -1.44805562496185303 59.6994247436523438 62 84 121
-1.83337628841400146 0.6147422194480896 58.243316650390625 145 139 123
4.54174995422363281 -1.46025180816650391 59.6400909423828125 37 53 89
4.59036445617675781 -1.46085071563720703 59.667266845703125 37 60 94
4.60644721984863281 -1.33827733993530273 59.6837196350097656 77 102 132
4.66398525238037109 -1.16508245468139648 59.6625022888183594 44 67 98
5.01286077499389648 -1.33022403717041016 59.5806312561035156 66 82 116
4.62969636917114258 -1.01723670959472656 59.6573905944824219 167 219 255
6.07164192199707031 -2.08624744415283203 59.4178314208984375 21 26 40
4.93200445175170898 -0.978780865669250488 59.5699310302734375 44 63 71
6.8087005615234375 -5.36997556686401367 59.8520774841308594 135 132 127
4.47242498397827148 -0.856682956218719482 59.3178672790527344 80 116 155
0.0731121823191642761 -3.43419551849365234 58.7900848388671875 47 52 53
4.80183076858520508 -0.792147576808929443 59.7800521850585938 146 201 255
2.70237946510314941 -4.25703763961791992 58.8248062133789062 153 157 158
5.52302408218383789 -0.796428203582763672 59.655792236328125 67 86 119
6.35344266891479492 -5.99018621444702148 59.6874313354492188 133 135 132
5.25996494293212891 -4.46659326553344727 59.2764549255371094 23 38 61
-0.624198257923126221 -5.3865962028503418 58.0951499938964844 144 134 107
6.39325904846191406 -4.29336738586425781 59.2426261901855469 153 209 255
4.71070528030395508 -1.73680281639099121 59.57427978515625 0 7 23
5.46424627304077148 -4.28334951400756836 59.3051643371582031 44 60 84
5.63779783248901367 -4.19917201995849609 59.2383460998535156 45 57 83
6.47750616073608398 -4.21721792221069336 59.2618751525878906 209 255 255
6.46322250366210938 -4.14950132369995117 59.1044960021972656 211 255 255
2.44260978698730469 -3.63388323783874512 58.7694625854492188 134 124 115
6.64070272445678711 -4.11873817443847656 59.0615997314453125 215 255 255
5.44598579406738281 -0.597546875476837158 59.6406974792480469 212 255 255
0.0759480446577072144 -3.35610151290893555 58.063812255859375 98 128 158
6.64966773986816406 -4.12257528305053711 59.1339645385742188 215 255 255
6.67130756378173828 -4.07690238952636719 59.2353858947753906 199 253 255
6.2126922607421875 -3.96566319465637207 59.2153053283691406 14 33 66
1.12978816032409668 -0.494506925344467163 58.4354591369628906 143 147 146
1.94405031204223633 -5.86287593841552734 59.3108978271484375 150 151 145
6.59261369705200195 -3.83245396614074707 59.2192611694335938 134 148 175
0.274364352226257324 -3.41182184219360352 58.5512809753417969 34 52 58
4.77009677886962891 -2.92725443840026855 59.6398696899414062 24 23 31
4.79770946502685547 -1.33935391902923584 59.6726875305175781 72 88 121
3.1538691520690918 -2.2295377254486084 59.0312385559082031 132 143 149
5.02921295166015625 -2.63227510452270508 59.4787826538085938 1 12 34
4.69119739532470703 -1.82778990268707275 59.6958732604980469 46 51 70
0.0156342759728431702 -3.05456328392028809 58.3971633911132812 146 175 193
6.53770589828491211 -2.58126306533813477 59.3477592468261719 42 47 62
5.23923444747924805 -2.29059934616088867 59.7818374633789062 2 6 25
-0.398154020309448242 -2.52509331703186035 58.336700439453125 154 156 153
2.89327812194824219 -2.23424077033996582 58.9303741455078125 86 76 71
5.60552406311035156 -0.562766551971435547 59.6808967590332031 218 255 255
1.68870759010314941 -2.50459766387939453 58.6771125793457031 83 108 130
5.6840357780456543 -1.98496150970458984 59.4980239868164062 122 157 199
4.74275398254394531 -1.43409514427185059 59.7059097290039062 65 82 108
5.05420017242431641 -1.23307478427886963 59.6108665466308594 90 110 143
0.645318746566772461 0.566044747829437256 58.2114219665527344 149 155 155
6.19277191162109375 -1.21605181694030762 59.5394287109375 52 52 57
5.63354301452636719 -4.63767576217651367 59.1714134216308594 219 255 255
6.25692176818847656 -4.33459997177124023 59.1971054077148438 129 188 253
6.4175105094909668 -4.26568984985351562 59.1624755859375 206 255 255
6.54747629165649414 -4.17506599426269531 59.1499977111816406 140 201 246
6.5901799201965332 -4.03664731979370117 59.2680320739746094 211 250 255
4.28273105621337891 -2.68283534049987793 59.45562744140625 109 99 97
6.66289377212524414 -4.04353475570678711 59.1271896362304688 146 201 255
5.65145587921142578 -3.29252862930297852 59.3759231567382812 3 24 51
5.22709321975708008 -0.563075661659240723 59.6252555847167969 212 255 255
0.558585941791534424 -3.19065666198730469 58.8106536865234375 166 199 226
3.21142458915710449 -0.966568171977996826 59.10345458984375 145 147 149
6.59014987945556641 -2.71081352233886719 59.2747154235839844 48 52 64
5.08044147491455078 -4.04159069061279297 59.3905029296875 23 23 31
4.42463350296020508 -1.55527734756469727 59.6688385009765625 33 48 81
5.55908489227294922 -2.11313486099243164 59.4666824340820312 6 14 33
4.66241836547851562 -1.15740692615509033 59.7378616333007812 47 69 99
3.75028181076049805 -2.88034915924072266 59.2761917114257812 143 147 148
4.85022878646850586 -1.14366614818572998 59.6175575256347656 36 65 97
5.98508882522583008 -4.46487760543823242 59.2596206665039062 138 191 254
6.58600139617919922 -4.22110462188720703 59.1259193420410156 149 200 248
2.97159862518310547 -4.47828865051269531 59.1933174133300781 174 176 172
5.1354217529296875 -3.85109543800354004 59.4317741394042969 41 49 69
3.41858029365539551 -1.26362991333007812 58.7873039245605469 104 107 110
-0.361980319023132324 -1.12349593639373779 58.6588668823242188 160 161 153
5.75160837173461914 -0.560228466987609863 59.3628311157226562 110 168 214
6.58580541610717773 -3.74985194206237793 59.1727561950683594 38 52 76
6.37157678604125977 -2.69775533676147461 59.2731819152832031 27 40 62
6.1561279296875 -1.1233677864074707 59.4303855895996094 29 26 35
3.19519329071044922 -2.26637935638427734 59.2176094055175781 181 201 199
5.03765106201171875 -1.93041932582855225 59.6129264831542969 58 71 98
5.39779806137084961 -1.77364087104797363 59.5668907165527344 14 27 50
0.788283765316009521 -4.42005729675292969 58.7533302307128906 150 151 146
5.4441227912902832 -1.09407281875610352 59.6658554077148438 62 86 112
6.47165632247924805 -4.24906539916992188 59.0664253234863281 203 254 255
0.785272717475891113 -3.08693599700927734 58.473480224609375 97 98 91
1.01263546943664551 -2.25913190841674805 58.6703987121582031 107 90 70
6.12025356292724609 -1.6892693042755127 59.4595108032226562 0 5 23
3.50133705139160156 -5.23386859893798828 58.644287109375 146 151 147
6.21930360794067383 -1.48132443428039551 59.3831939697265625 61 71 83
5.49426937103271484 -0.881275951862335205 59.631805419921875 61 89 129
4.94880533218383789 -2.67101645469665527 59.5482635498046875 63 74 96
1.37259876728057861 -5.28049850463867188 59.1924972534179688 131 123 120
3.12216949462890625 -5.7446599006652832 59.9043540954589844 138 126 110
6.59307765960693359 -4.31914854049682617 59.1544990539550781 143 201 255
6.22573137283325195 -2.14779806137084961 59.39788818359375 23 34 53
-0.0521668903529644012 2.01862144470214844 57.5777854919433594 0 0 0
-1.32771742343902588 -4.47939634323120117 57.853302001953125 152 153 148
6.22721576690673828 -2.14599967002868652 59.4077110290527344 23 34 53
5.0630803108215332 -1.86136448383331299 59.562469482421875 7 16 47
4.6043086051940918 -2.56977224349975586 59.4643745422363281 92 76 59
6.41770124435424805 -2.49684858322143555 59.4118118286132812 23 36 53
-1.3989332914352417 -2.23406314849853516 58.2415046691894531 148 152 153
2.86131453514099121 -1.89838027954101562 58.9563369750976562 137 131 117
5.96459484100341797 -4.1185755729675293 59.3073959350585938 33 51 79
6.25434446334838867 -4.18626308441162109 59.1390304565429688 215 255 255
-0.657604455947875977 -4.92394781112670898 58.0717582702636719 134 131 122
-1.37367749214172363 -2.22442078590393066 58.355377197265625 139 137 124
2.10596776008605957 -5.92255640029907227 59.0691871643066406 136 124 111
-0.111931130290031433 -4.95767879486083984 58.2155189514160156 145 148 141
6.49463415145874023 -3.78641676902770996 59.1357498168945312 12 20 39
-0.958388388156890869 -5.16423130035400391 58.0153007507324219 148 151 142
2.0521690845489502 -6.135955810546875 59.3867149353027344 135 119 103
3.09478282928466797 -3.22527861595153809 59.0197029113769531 167 168 172
0.771261394023895264 -2.5617527961730957 58.7507057189941406 94 127 175
1.76436972618103027 -2.53618192672729492 58.8157806396484375 95 91 92
4.2078704833984375 -4.02455520629882812 59.0580596923828125 123 111 99
1.36287713050842285 -2.26986837387084961 58.7284317016601562 81 115 142
4.44087076187133789 -0.504920303821563721 59.3946647644042969 129 132 125
5.46775102615356445 -0.791569411754608154 59.6184272766113281 138 167 199
5.23839139938354492 -1.82030332088470459 59.5510902404785156 127 158 200
5.35713481903076172 -4.53506898880004883 59.1968116760253906 41 56 88
5.5392608642578125 -3.16033029556274414 59.4278106689453125 0 12 52
4.22615289688110352 -1.21579957008361816 59.6471595764160156 93 83 72
5.27201271057128906 -0.840007305145263672 59.6307792663574219 23 39 59
4.5594182014465332 -1.23730325698852539 59.7662734985351562 106 131 173
6.02211284637451172 -2.83002996444702148 59.3952980041503906 12 37 76
0.173309922218322754 -3.45320963859558105 58.4705848693847656 32 35 38
-1.84404158592224121 0.923526346683502197 58.0253143310546875 0 0 0
4.49974346160888672 -1.52178812026977539 59.5982208251953125 77 94 132
0.561870217323303223 -2.08913755416870117 58.6646575927734375 130 126 127
5.10180997848510742 -0.969608008861541748 59.619384765625 70 93 124
1.61968815326690674 -1.42188620567321777 58.705841064453125 146 147 145
5.1018834114074707 -3.47819018363952637 59.2887344360351562 24 36 52
2.73853325843811035 -4.74384450912475586 58.5644264221191406 159 160 155
5.28314304351806641 -2.73462224006652832 59.5785636901855469 37 46 70
2.51639199256896973 -5.49601984024047852 59.4202728271484375 136 141 145
6.57212162017822266 -4.00051021575927734 59.1824722290039062 5 35 64
-1.73006308078765869 -3.87677526473999023 58.590667724609375 154 159 153
6.24808549880981445 -1.41599678993225098 59.48016357421875 42 39 48
2.92619037628173828 -1.2017291784286499 59.245361328125 145 150 146
0.361171066761016846 -4.13474750518798828 59.1063995361328125 124 117 100
-1.78460144996643066 -0.363667130470275879 57.8564033508300781 144 140 122
1.85233259201049805 -4.55600452423095703 58.6538619995117188 177 173 170
5.64203834533691406 -2.1100456714630127 59.5805816650390625 39 48 65
6.38086700439453125 -2.05487346649169922 59.4429206848144531 7 13 26
1.26412653923034668 -1.4061589241027832 58.6579017639160156 150 152 151
5.14951848983764648 -1.18040990829467773 59.5761985778808594 0 0 0
1.45688033103942871 -5.34514617919921875 58.5203285217285156 123 117 116
-1.49818336963653564 -4.33326578140258789 58.4082870483398438 152 149 140
4.58849716186523438 -2.42864036560058594 59.4717445373535156 80 72 71
4.05539321899414062 -4.54789924621582031 58.8014678955078125 171 171 169
1.29567766189575195 -5.15524435043334961 58.249969482421875 130 122 119
-1.0783616304397583 -5.36724472045898438 58.3755111694335938 176 180 183
5.63650941848754883 -2.50697684288024902 59.4135322570800781 15 44 84
5.87429189682006836 -3.57746362686157227 59.3860359191894531 20 22 42
2.17719054222106934 -1.06964766979217529 58.4493217468261719 147 151 149
2.10647344589233398 -1.29937148094177246 58.9767723083496094 129 130 117
-0.00226337788626551628 -3.26356172561645508 58.9001388549804688 183 204 239
0.307729095220565796 -2.75454568862915039 58.2688674926757812 94 122 169
0.1755942702293396 -5.70850610733032227 58.3624267578125 155 162 162
0.0463681183755397797 -5.64277410507202148 58.2030563354492188 133 125 114
-1.28268039226531982 -5.3529047966003418 58.7185211181640625 152 154 151
4.94183492660522461 -1.02527534961700439 59.6537857055664062 22 41 72
5.26597261428833008 -4.90089797973632812 59.213165283203125 102 105 108
5.18190765380859375 -4.39316272735595703 59.3002891540527344 13 22 35
-1.18747043609619141 -3.30541682243347168 58.5687141418457031 93 93 88
1.63554060459136963 -3.4318845272064209 58.6054496765136719 137 134 125
6.33398342132568359 -4.376251220703125 59.2016181945800781 142 203 255
6.42653179168701172 -4.52669191360473633 59.2159385681152344 58 80 120
6.49946403503417969 -4.22852373123168945 59.1001472473144531 204 254 255
-0.0598260685801506042 -3.15505194664001465 58.8300094604492188 129 153 189
1.97638773918151855 -0.651746392250061035 58.99005126953125 158 158 156
3.7467491626739502 -6.04750633239746094 59.3553009033203125 151 150 144
6.06183528900146484 -4.03824234008789062 59.31597900390625 79 100 136
1.62222933769226074 -1.93593645095825195 58.7013702392578125 0 0 0
6.70272207260131836 -4.05074453353881836 59.1584587097167969 198 254 255
5.859039306640625 -3.57842540740966797 59.4112892150878906 43 49 61
3.28046584129333496 -1.0115048885345459 58.7888069152832031 149 138 132
