ply
format ascii 1.0
element vertex 653
property float x
property float y
property float z
property uchar red
property uchar green
property uchar blue
end_header
2.98882246017456055 -0.554816961288452148 3.49825811386108398 185 141 128
6.09991979598999023 -1.22091388702392578 4.84781122207641602 206 194 182
-1.92502164840698242 0.153769135475158691 3.33732414245605469 168 168 168
6.59033298492431641 -1.45917665958404541 4.83499860763549805 208 201 193
6.59033298492431641 -1.45917665958404541 4.83499860763549805 208 201 193
1.28577244281768799 -0.114416971802711487 4.2452387809753418 185 158 146
2.26979970932006836 -0.823374271392822266 3.31453919410705566 165 141 136
6.2429652214050293 -1.35259866714477539 4.83797740936279297 207 203 194
-1.58170640468597412 0.017528388649225235 3.33652210235595703 187 187 187
9.12764644622802734 -1.26668787002563477 4.87043952941894531 206 202 192
2.97723793983459473 -0.556971490383148193 4.0947265625 183 148 129
-0.471033394336700439 -0.122606247663497925 4.7523045539855957 162 122 106
7.64049863815307617 -0.943812370300292969 4.92453432083129883 207 198 191
2.19332194328308105 -0.907053172588348389 3.30740046501159668 174 141 129
3.01917123794555664 -0.688670873641967773 3.50879025459289551 114 58 45
3.01273107528686523 -0.48411107063293457 3.36588549613952637 92 56 44
5.9641261100769043 0.855643033981323242 4.98409843444824219 206 192 184
-2.21904444694519043 0.215483248233795166 3.31790041923522949 165 165 165
-0.26740458607673645 -0.145257309079170227 4.38218164443969727 114 55 41
2.40199875831604004 -0.936475694179534912 3.30742883682250977 124 100 88
1.45281302928924561 -0.681893646717071533 3.34683847427368164 178 180 178
1.40587306022644043 -0.779952108860015869 3.3712470531463623 178 178 178
0.0836891829967498779 -0.115783818066120148 3.94529485702514648 134 85 70
2.95854330062866211 -0.915672481060028076 3.83177757263183594 127 94 77
2.73377346992492676 -0.767663359642028809 3.32299423217773438 197 173 163
-1.94251775741577148 0.146298438310623169 3.36040949821472168 174 174 174
2.95158815383911133 -0.504086613655090332 3.34630727767944336 189 161 147
2.91602134704589844 -0.432615756988525391 3.3477022647857666 167 112 101
1.55708730220794678 -0.23706364631652832 4.66244840621948242 174 153 142
-0.664559602737426758 -0.216572239995002747 4.80995512008666992 204 194 181
1.63138461112976074 -0.592929482460021973 3.31633925437927246 177 144 127
3.80836796760559082 -1.53704154491424561 4.80428218841552734 211 201 192
-3.81826400756835938 0.976007640361785889 4.91831111907958984 209 200 193
1.53022491931915283 -0.43546760082244873 3.33063912391662598 154 122 109
9.6394805908203125 -0.828192174434661865 4.91136789321899414 206 195 184
2.88068890571594238 -0.639578759670257568 3.33356428146362305 124 90 81
2.88092446327209473 -0.639564812183380127 3.3332207202911377 124 90 81
3.22703909873962402 0.935808479785919189 4.94932413101196289 202 190 178
-1.55358266830444336 -0.0383071973919868469 4.86475992202758789 206 195 189
3.88246488571166992 -0.545226097106933594 4.88198995590209961 208 196 182
2.97089409828186035 -1.01339662075042725 4.55031347274780273 156 113 97
2.89097213745117188 -0.467303663492202759 3.34522247314453125 200 169 153
1.1257634162902832 -0.26444852352142334 4.35450649261474609 135 111 99
0.532686293125152588 -0.202024400234222412 3.88320231437683105 187 160 141
0.751134812831878662 -0.0641468241810798645 3.55633735656738281 158 115 96
4.41777372360229492 -0.82230675220489502 4.86089086532592773 189 172 163
2.9823920726776123 -0.990848422050476074 4.28294181823730469 156 113 96
4.41711664199829102 -0.822514653205871582 4.86123800277709961 189 172 163
1.26140260696411133 -0.33109012246131897 4.67844152450561523 93 50 38
8.38009262084960938 -0.773176729679107666 4.91884374618530273 188 174 161
6.86852693557739258 0.324487060308456421 4.97322702407836914 210 194 181
2.95390868186950684 -0.857467949390411377 3.31819248199462891 186 149 132
-0.298144131898880005 -0.0926693826913833618 4.52752780914306641 139 81 69
2.82493472099304199 -0.765214920043945312 3.32273602485656738 130 88 75
2.62016654014587402 -0.713753938674926758 3.32261419296264648 130 93 84
2.94104623794555664 -0.774308919906616211 4.25393199920654297 96 58 49
1.73681938648223877 -0.136832430958747864 4.88690471649169922 198 170 149
2.84277844429016113 -0.684312939643859863 3.32648968696594238 122 89 71
0.418519318103790283 0.00779036153107881546 4.36065816879272461 108 56 42
8.38009262084960938 -0.773176729679107666 4.91884374618530273 188 174 161
0.60176539421081543 0.80181199312210083 4.94369983673095703 207 193 184
2.97654509544372559 -0.438436061143875122 3.90117335319519043 137 87 73
1.65401601791381836 -0.189186975359916687 4.73941230773925781 96 47 33
1.56329452991485596 -0.132449403405189514 4.69459962844848633 154 123 113
1.69445717334747314 -0.383956640958786011 3.33730030059814453 185 124 106
1.23701846599578857 -0.250162452459335327 4.41038751602172852 163 149 136
2.90386462211608887 -0.84745490550994873 3.31905055046081543 132 94 77
0.364544570446014404 -0.00359358126297593117 4.26792573928833008 104 52 38
1.60563385486602783 -0.743131875991821289 3.3158111572265625 136 87 73
-8.93131923675537109 0.852337360382080078 4.85470199584960938 206 193 185
2.29858303070068359 -0.506388843059539795 3.33872342109680176 204 177 160
2.86553001403808594 -0.726406335830688477 3.32675981521606445 142 111 93
2.96326947212219238 -0.646227478981018066 4.22263813018798828 135 88 72
2.87099599838256836 -0.619153022766113281 3.33405661582946777 205 187 175
2.53803396224975586 -0.920465707778930664 3.31257104873657227 132 112 101
2.95970678329467773 -0.575863063335418701 3.33796048164367676 195 158 142
2.85921621322631836 -0.565023064613342285 3.3392951488494873 199 171 160
2.76540231704711914 -0.425143003463745117 4.14412164688110352 125 68 54
2.97247672080993652 -0.540624082088470459 4.69005250930786133 196 149 135
0.0870540887117385864 0.00156351004261523485 4.55968093872070312 166 117 102
2.96252608299255371 -0.514778435230255127 4.79628992080688477 128 99 85
2.99866533279418945 -0.49641767144203186 3.70621228218078613 127 80 72
2.93415379524230957 -0.457657575607299805 3.34736323356628418 139 91 83
1.52853727340698242 -0.839166760444641113 3.31221866607666016 168 133 117
2.9002375602722168 -0.913398563861846924 3.31805038452148438 192 156 140
2.87819528579711914 -0.746788978576660156 3.33221769332885742 133 95 82
0.484954565763473511 -0.00286729843355715275 4.23654651641845703 107 49 35
2.92145109176635742 -0.726519763469696045 3.3253483772277832 166 132 120
2.7395937442779541 -0.45134398341178894 4.54163122177124023 199 161 142
2.89317774772644043 -0.682921886444091797 3.32877349853515625 170 132 117
6.75156879425048828 0.170702844858169556 4.95494222640991211 182 162 151
2.91576266288757324 -0.879531145095825195 3.31737136840820312 140 103 85
1.04049801826477051 0.000584304856602102518 4.63312101364135742 90 50 42
2.9436185359954834 -0.660233557224273682 3.33418941497802734 181 135 127
7.31556987762451172 -0.506730496883392334 4.90741300582885742 186 173 164
4.56111478805541992 0.707033216953277588 4.98554897308349609 204 194 184
2.94092917442321777 -0.483897358179092407 3.34392428398132324 180 148 136
1.87859129905700684 0.754886984825134277 4.95251607894897461 207 194 185
2.22391629219055176 -0.874738574028015137 3.30654358863830566 159 117 103
1.25887501239776611 -0.14216652512550354 4.19460487365722656 141 95 84
0.896844863891601562 -0.0934913754463195801 3.64687180519104004 84 51 41
2.91521573066711426 -0.879582881927490234 3.31831741333007812 140 103 85
6.00184345245361328 -1.23494184017181396 4.84654855728149414 189 171 159
-2.34006452560424805 0.191895946860313416 3.3645026683807373 175 175 175
1.65889120101928711 -0.19149482250213623 4.74224328994750977 113 62 58
2.97574615478515625 -0.482382833957672119 3.87974667549133301 136 85 71
-1.62219381332397461 -0.253525525331497192 4.85214471817016602 141 140 138
4.84358024597167969 0.747547626495361328 4.97359371185302734 179 161 145
2.93002033233642578 -0.389822572469711304 3.35584378242492676 134 89 83
4.08237552642822266 -0.517299532890319824 4.88708019256591797 202 194 183
2.97286486625671387 -0.880691707134246826 3.32096004486083984 190 153 137
2.9037935733795166 -0.824268996715545654 3.31722497940063477 133 86 76
2.9910743236541748 -0.777404129505157471 4.14076805114746094 109 62 54
1.71198844909667969 -0.122954294085502625 4.90046834945678711 193 165 144
1.46994507312774658 -0.0765712708234786987 4.66979789733886719 174 142 134
2.92273116111755371 -0.781826317310333252 3.32038378715515137 191 148 138
2.92939949035644531 -0.924591064453125 3.32409358024597168 146 113 96
0.413671553134918213 0.0525755248963832855 4.859832763671875 212 190 179
-1.91237831115722656 -0.0325899794697761536 3.34894752502441406 188 188 188
2.60342288017272949 -0.88763505220413208 3.309661865234375 138 101 93
0.623112738132476807 0.0241679511964321136 4.56617116928100586 141 108 99
2.99931097030639648 -0.51418226957321167 3.38072800636291504 144 107 89
0.872435986995697021 0.0201236940920352936 4.67110586166381836 87 68 61
2.88471603393554688 -0.760000824928283691 3.32424354553222656 164 122 110
-0.551443338394165039 -1.02267098426818848 4.54897451400756836 140 132 129
-6.87851524353027344 -0.0635101348161697388 4.80338478088378906 186 170 155
2.91556501388549805 -0.543077230453491211 3.34038615226745605 165 123 111
-2.07782387733459473 0.0524848178029060364 3.35252881050109863 172 172 172
2.97380185127258301 -0.827336728572845459 4.38456964492797852 163 118 103
2.99406170845031738 -0.463569790124893188 3.52543354034423828 104 59 44
2.94727969169616699 -0.433992385864257812 3.3513495922088623 140 87 73
1.24951004981994629 -0.21205100417137146 4.27373695373535156 186 157 146
2.36833429336547852 -0.929139614105224609 3.30907964706420898 164 132 119
-1.89766848087310791 0.185754433274269104 3.36399221420288086 168 169 169
1.55331230163574219 -0.544920504093170166 3.32506871223449707 197 174 163
-0.032373521476984024 -0.952582657337188721 4.08164358139038086 129 131 130
2.3528132438659668 -0.875744640827178955 3.31111383438110352 179 147 137
2.95008063316345215 -0.425267666578292847 3.34876275062561035 136 82 70
2.97253561019897461 -0.543133020401000977 3.83461642265319824 160 114 101
0.627829849720001221 -0.0358566902577877045 3.84282326698303223 142 84 72
2.95468306541442871 -0.549221813678741455 3.33767342567443848 128 78 67
2.27145028114318848 -0.469204902648925781 4.80609893798828125 154 114 93
0.177991852164268494 -0.254817277193069458 4.24817037582397461 151 110 92
3.66573381423950195 -1.23706960678100586 4.82241201400756836 191 174 160
1.87556099891662598 -0.783986032009124756 3.32224822044372559 144 102 86
2.990264892578125 -0.833469152450561523 3.70632457733154297 74 42 31
-0.446935951709747314 -1.2745208740234375 4.78100728988647461 208 195 183
-2.13513875007629395 0.114456243813037872 4.48511600494384766 145 145 145
-0.562153518199920654 -0.635347664356231689 4.78217411041259766 190 189 188
2.48197150230407715 -0.809103608131408691 3.32061243057250977 176 161 153
-2.34047770500183105 0.130407437682151794 4.33615636825561523 128 128 128
2.73600316047668457 -0.757011532783508301 3.31946635246276855 144 111 102
2.97758340835571289 -0.459833323955535889 3.34844636917114258 147 103 89
11.5795488357543945 -1.23935818672180176 4.89191389083862305 204 197 191
1.47165930271148682 -0.271856188774108887 4.63989782333374023 119 88 76
2.07472395896911621 -0.43093988299369812 3.33770036697387695 167 120 104
1.75402188301086426 -0.365281909704208374 3.33707737922668457 182 141 119
2.7743828296661377 -0.722948253154754639 3.32574009895324707 162 131 120
2.01512527465820312 -1.69398713111877441 4.77241611480712891 206 194 186
1.64271724224090576 -0.840945422649383545 3.31157302856445312 155 116 99
2.23282623291015625 -0.881816983222961426 3.31444144248962402 151 114 102
2.97553777694702148 -0.76604008674621582 4.3122406005859375 98 56 43
2.61164402961730957 -0.940744519233703613 3.30880594253540039 153 135 123
2.40115690231323242 -0.62986987829208374 3.33180403709411621 189 173 163
2.28398513793945312 -0.93703073263168335 3.30510497093200684 120 100 93
2.35015106201171875 -0.441854894161224365 4.39754438400268555 153 120 95
2.7743828296661377 -0.722948253154754639 3.32574009895324707 162 131 120
0.00117489916738122702 -0.0789047256112098694 4.12183523178100586 123 67 54
0.508810102939605713 -0.218515798449516296 4.00318050384521484 172 141 127
-0.248112142086029053 0.931581377983093262 4.95010137557983398 208 193 184
1.6672745943069458 -0.707726597785949707 3.31922674179077148 116 104 97
2.90685892105102539 -0.835187673568725586 4.86571455001831055 126 69 57
3.50245141983032227 -0.247998431324958801 4.89777374267578125 190 172 162
1.55389463901519775 -1.33270406723022461 4.79721879959106445 209 201 191
2.98380851745605469 -0.441360920667648315 3.6943671703338623 117 67 48
5.29575347900390625 -1.06705808639526367 4.85107278823852539 208 196 185
5.01139402389526367 -0.560004353523254395 4.88560581207275391 209 200 191
0.504643917083740234 -1.38416969776153564 4.78268003463745117 208 194 183
2.48653435707092285 -0.461976379156112671 4.54276895523071289 182 143 119
-2.15997600555419922 -1.37822532653808594 4.75745439529418945 205 196 187
1.19139444828033447 -0.146317511796951294 4.1160130500793457 129 84 71
1.71918904781341553 -0.929197192192077637 3.30229878425598145 171 145 132
2.7877800464630127 -0.878337323665618896 3.31434845924377441 127 92 75
1.8689950704574585 -0.722099483013153076 3.32139062881469727 148 106 100
2.9938206672668457 -0.531218349933624268 3.35293269157409668 111 54 44
1.7531050443649292 -0.675395309925079346 3.32123136520385742 134 98 88
2.10134696960449219 -0.41801115870475769 4.15941333770751953 166 138 114
1.7598116397857666 -0.829376816749572754 3.30922079086303711 156 111 96
0.399431407451629639 0.0103181358426809311 4.49315547943115234 127 89 73
-1.62979590892791748 -0.212981507182121277 4.15707159042358398 146 146 146
3.80887532234191895 -1.53727245330810547 4.80394649505615234 209 199 190
-1.42669022083282471 -0.523038506507873535 4.83257055282592773 206 194 185
5.03476762771606445 0.73439711332321167 4.98091936111450195 203 193 183
3.00056838989257812 -0.66799318790435791 3.34608626365661621 126 68 57
6.24752092361450195 0.64236372709274292 5.00876426696777344 184 161 140
0.698768496513366699 -0.0182063281536102295 3.99053764343261719 137 107 89
-1.56744015216827393 -0.155623823404312134 4.48816347122192383 121 123 122
2.31689548492431641 -0.426449388265609741 4.19530439376831055 186 156 130
-1.21523821353912354 0.840425431728363037 4.92539691925048828 206 196 185
2.54803967475891113 -0.56108623743057251 3.32636189460754395 153 119 100
3.57413792610168457 0.742122530937194824 4.96038198471069336 203 193 183
-6.51743030548095703 0.840570330619812012 4.87895679473876953 202 188 179
2.15414881706237793 -0.400723576545715332 3.34764003753662109 179 150 140
-1.61714255809783936 0.175898268818855286 3.3801414966583252 180 180 180
-1.99537324905395508 0.092371717095375061 4.84116840362548828 193 182 177
-1.5144885778427124 -0.365053713321685791 4.76433897018432617 200 186 177
2.56203413009643555 -0.889291524887084961 3.3130645751953125 169 134 130
-3.37103652954101562 0.707626998424530029 4.90946006774902344 206 197 190
2.95412588119506836 -0.443364500999450684 4.37755393981933594 149 112 93
3.57413792610168457 0.742122530937194824 4.96038198471069336 203 193 183
2.79572153091430664 0.703553438186645508 4.94621801376342773 209 198 188
3.29332661628723145 -0.368915259838104248 4.88456439971923828 202 190 178
-7.2236170768737793 0.241409555077552795 4.82817792892456055 205 195 186
1.32531642913818359 -0.230215668678283691 4.40306854248046875 196 171 158
-1.6972728967666626 0.168866664171218872 3.36375045776367188 147 148 145
-1.75553798675537109 0.104434773325920105 4.76178407669067383 210 202 195
2.62464451789855957 -0.412199646234512329 3.35263490676879883 171 132 125
-2.53499269485473633 0.188950479030609131 4.87070512771606445 209 199 189
4.28505563735961914 0.642591476440429688 4.96536445617675781 203 185 173
-0.472772389650344849 0.834459602832794189 4.9521021842956543 207 197 185
-1.58110952377319336 0.8210105299949646 4.93247127532958984 205 192 183
-6.33211994171142578 0.765331566333770752 4.88616943359375 204 200 189
-0.472772389650344849 0.834459602832794189 4.9521021842956543 207 197 185
-1.38809430599212646 0.0583500675857067108 4.86817359924316406 201 190 184
-1.58861219882965088 -0.000372250302461907268 3.58906388282775879 147 147 147
0.797999262809753418 0.815286993980407715 4.94722986221313477 208 192 179
-3.02919721603393555 -0.0462131425738334656 3.33375263214111328 189 188 184
-2.52994585037231445 -0.0557778514921665192 3.34448003768920898 166 166 166
3.66531991958618164 0.770143330097198486 4.97784709930419922 184 170 159
2.97421026229858398 -0.767187356948852539 4.30636024475097656 91 50 42
-1.10149431228637695 0.939756333827972412 4.94110107421875 207 192 180
2.79176187515258789 -0.704027652740478516 3.3269655704498291 178 144 132
0.50387042760848999 0.0248437654227018356 4.5671687126159668 191 153 142
6.75147724151611328 0.170691564679145813 4.95486640930175781 182 162 152
1.08121621608734131 -0.0783922448754310608 4.05122661590576172 148 102 87
1.08244884014129639 -0.0788737088441848755 4.05444192886352539 148 102 87
2.62047815322875977 -0.440201401710510254 4.39046525955200195 152 103 80
-2.30828595161437988 0.189063951373100281 3.36590671539306641 180 182 181
2.9715878963470459 -0.758978009223937988 4.47996997833251953 159 119 107
0.0919084995985031128 -0.169582948088645935 4.01551485061645508 88 46 32
10.4462995529174805 -0.309873580932617188 4.95737838745117188 208 199 194
1.08011984825134277 -0.0779173076152801514 4.04831218719482422 148 102 87
0.553110182285308838 -0.0107758883386850357 4.10390663146972656 130 93 74
1.98129463195800781 -0.391926556825637817 3.78032326698303223 196 168 147
0.396297335624694824 0.0189845897257328033 4.52926492691040039 125 79 63
-1.57499897480010986 -0.0499118231236934662 4.44756078720092773 167 167 167
2.65111827850341797 -0.390587389469146729 3.35117530822753906 204 181 171
2.98490428924560547 -0.678650438785552979 3.71249818801879883 154 123 105
-0.0543700158596038818 -0.0131213478744029999 4.57219839096069336 125 77 57
2.5024106502532959 -0.449629932641983032 4.59337902069091797 155 109 83
-1.57963752746582031 0.133185356855392456 3.66679048538208008 167 167 167
4.33176660537719727 0.783088147640228271 4.98025131225585938 185 162 147
-2.36482095718383789 0.17792963981628418 3.37706351280212402 150 152 151
2.93888235092163086 -0.902841329574584961 3.31593561172485352 144 108 92
-2.21749329566955566 0.189047515392303467 3.37119555473327637 188 188 188
-1.58343696594238281 0.148322969675064087 3.70855283737182617 127 129 128
5.1029815673828125 -0.431976646184921265 4.89449882507324219 183 167 152
0.364457935094833374 -0.0055481279268860817 4.27335214614868164 108 52 39
-1.83006763458251953 0.107571132481098175 4.55350875854492188 122 122 122
-2.58175802230834961 0.18413466215133667 3.36192846298217773 147 147 147
2.95749187469482422 -0.804438352584838867 4.8361811637878418 115 66 52
-1.96330046653747559 0.164217174053192139 3.35210108757019043 162 162 162
2.25555992126464844 -0.87792360782623291 3.31353378295898438 123 94 80
0.35189935564994812 -0.0942742824554443359 3.59398174285888672 165 124 110
0.827569246292114258 -0.0855268761515617371 3.63671326637268066 101 55 40
3.09764432907104492 -0.735804438591003418 4.84952211380004883 205 193 181
0.202254161238670349 -0.0672672241926193237 3.86326432228088379 184 146 130
0.0101173417642712593 -0.111839748919010162 4.20715093612670898 114 60 44
-0.487503081560134888 -0.171601191163063049 4.6962580680847168 126 73 54
2.48517489433288574 -0.480695277452468872 4.87994861602783203 134 97 76
-0.611339747905731201 0.758627355098724365 4.93083381652832031 211 201 191
-0.281131953001022339 -0.0453520640730857849 4.65253782272338867 131 82 67
2.98422694206237793 -0.568858444690704346 3.6826786994934082 181 142 123
0.136648684740066528 0.00262743700295686722 4.46860504150390625 124 72 58
-0.016722552478313446 0.0242857690900564194 4.89682579040527344 203 177 165
0.713016390800476074 -0.0442589782178401947 3.70899415016174316 108 56 42
-0.0589813664555549622 -0.102054789662361145 4.16344070434570312 137 84 70
2.55286097526550293 -0.441778212785720825 4.39335918426513672 160 105 80
2.97158670425415039 -0.840512394905090332 4.34997844696044922 108 60 46
-0.0589813664555549622 -0.102054789662361145 4.16344070434570312 137 84 70
-0.796232163906097412 0.78731536865234375 4.92932271957397461 207 197 188
0.446252554655075073 -0.0633798092603683472 3.48978114128112793 177 138 124
1.24961507320404053 0.00188036391045898199 4.83358192443847656 104 81 67
3.00840091705322266 -0.475492328405380249 3.51049423217773438 103 59 48
-1.56689333915710449 0.0611186288297176361 4.98140573501586914 199 193 186
2.81421446800231934 -0.660349488258361816 3.33108425140380859 132 96 83
1.22578239440917969 -0.254444092512130737 4.38771152496337891 182 164 154
-0.171690464019775391 -0.13856641948223114 4.28262519836425781 163 110 96
7.22364568710327148 0.187676623463630676 4.96895408630371094 205 191 182
-0.578482210636138916 -0.216687232255935669 4.84856414794921875 135 88 71
0.19754260778427124 0.00316234608180820942 4.46880245208740234 140 90 83
-1.58170485496520996 0.151591584086418152 3.80613470077514648 159 160 159
4.28505563735961914 0.642591476440429688 4.96536445617675781 203 185 173
2.99214529991149902 -0.644574582576751709 3.36152195930480957 175 131 120
2.78156447410583496 -0.45359724760055542 4.47905874252319336 196 168 146
1.08053791522979736 -0.000285332382190972567 4.64675188064575195 153 112 106
1.60743534564971924 0.220824852585792542 4.90981674194335938 204 186 174
-0.171690464019775391 -0.13856641948223114 4.28262519836425781 163 110 96
2.76820635795593262 -0.748304426670074463 3.32696008682250977 127 91 77
-0.433294862508773804 -0.154561623930931091 4.62690067291259766 171 121 104
1.23968756198883057 -0.0952469110488891602 4.23937177658081055 188 146 134
0.0697274953126907349 -0.0530456043779850006 4.10056066513061523 123 67 52
-0.561602234840393066 -0.0906792879104614258 4.82306385040283203 204 176 162
0.426879376173019409 -0.0117695117369294167 4.15241622924804688 129 76 58
-2.11715269088745117 -0.11567261815071106 3.34205079078674316 191 191 191
2.98807621002197266 -0.429754853248596191 3.595001220703125 159 113 93
-0.246630862355232239 -0.0368409417569637299 4.69102001190185547 173 128 110
-1.90747642517089844 0.841077208518981934 4.92379379272460938 208 197 188
-0.0913382545113563538 -0.00454192096367478371 4.73491954803466797 153 101 80
5.01048564910888672 -0.559894919395446777 4.88472414016723633 209 200 191
1.89839935302734375 -0.535129308700561523 3.33097028732299805 163 129 120
-1.57968604564666748 0.185359224677085876 3.37796449661254883 186 186 186
3.72098875045776367 -0.67888563871383667 4.75140571594238281 209 191 177
-1.58666276931762695 0.149019747972488403 3.83082008361816406 159 160 159
2.99904561042785645 -0.693665385246276855 4.08039426803588867 180 138 124
2.2622525691986084 -0.458323627710342407 4.66773700714111328 151 120 91
2.44553875923156738 -0.470400512218475342 4.83241748809814453 127 88 70
2.26188111305236816 -0.458979904651641846 4.6812748908996582 157 116 91
0.111134089529514313 -0.114071980118751526 3.88748049736022949 131 84 68
2.9536130428314209 -0.763279318809509277 4.74161338806152344 155 104 87
2.89212727546691895 -0.446219831705093384 4.5464634895324707 153 124 110
0.196137264370918274 -0.154584184288978577 3.85588741302490234 123 72 58
0.409569799900054932 0.0159814096987247467 4.41250753402709961 152 109 92
2.97460722923278809 -0.597591221332550049 3.33868098258972168 187 158 142
0.775568962097167969 0.0216407664120197296 4.57572793960571289 111 93 84
0.192371457815170288 -0.024204842746257782 4.11693859100341797 124 66 52
0.264224439859390259 -0.0505872480571269989 3.84840583801269531 141 95 76
8.72539520263671875 0.785122215747833252 5.01039838790893555 207 193 184
0.104469373822212219 -0.0749883502721786499 3.97038817405700684 146 104 88
-2.1703345775604248 -0.28861314058303833 3.3254997730255127 190 190 190
0.0799103379249572754 -0.104474663734436035 3.96271657943725586 123 74 57
-0.550224900245666504 -0.132220253348350525 4.82053947448730469 171 132 117
0.202894270420074463 -0.155416950583457947 3.86476755142211914 117 70 54
2.98982119560241699 -0.512094318866729736 4.41686820983886719 141 93 79
2.24136638641357422 -0.446195393800735474 4.56510353088378906 154 119 91
2.26188111305236816 -0.458979904651641846 4.6812748908996582 157 116 91
2.25067591667175293 -0.842163145542144775 3.31268477439880371 115 79 70
0.819268643856048584 -0.0381602160632610321 3.90302729606628418 114 66 51
0.152315586805343628 0.0371159762144088745 4.89776039123535156 223 193 185
0.923977911472320557 0.0401389226317405701 4.88854169845581055 207 187 176
1.210601806640625 0.00463060988113284111 4.86906099319458008 93 69 57
4.54326057434082031 0.774081051349639893 4.97481203079223633 203 190 180
0.119584046304225922 0.00650215707719326019 4.64297866821289062 114 62 48
2.98233652114868164 -0.788722395896911621 4.19657421112060547 96 49 39
0.0712787434458732605 0.0299063902348279953 4.90090179443359375 205 177 165
-0.327303588390350342 -0.0530145242810249329 4.66426801681518555 143 91 77
-1.83898091316223145 0.178105324506759644 3.59408140182495117 139 139 139
1.15152907371520996 -0.0376503542065620422 4.37879276275634766 153 115 102
4.13357400894165039 0.776484191417694092 4.97517538070678711 210 196 185
2.50404858589172363 -0.42800670862197876 4.18757152557373047 178 130 108
4.56111478805541992 0.707033216953277588 4.98554897308349609 204 194 184
2.9785459041595459 -0.467948347330093384 4.77271890640258789 196 172 157
0.991606652736663818 -0.0720760971307754517 3.93516802787780762 137 91 76
6.28986024856567383 0.271248608827590942 4.95520925521850586 205 195 185
-0.342263221740722656 -0.0938775017857551575 4.63135719299316406 124 68 55
6.5393681526184082 -1.01654493808746338 4.8672943115234375 186 168 147
2.51291823387145996 -0.443558573722839355 4.43272113800048828 179 123 98
-2.57804322242736816 -0.117941401898860931 3.33554220199584961 154 154 154
1.4199366569519043 -0.0624493509531021118 4.63750696182250977 97 69 58
4.07372045516967773 -0.517121076583862305 4.88106966018676758 206 195 185
-0.298637747764587402 -0.0899443849921226501 4.51300907135009766 138 80 68
4.07349252700805664 -0.517328977584838867 4.88034439086914062 206 196 185
1.28075325489044189 -0.00347984977997839451 4.92674160003662109 204 180 164
-2.56358003616333008 -0.0369960442185401917 3.34005498886108398 154 154 154
7.50461912155151367 1.18053877353668213 5.04322624206542969 205 195 185
2.33155488967895508 -0.889751851558685303 3.30583000183105469 119 89 79
0.12588675320148468 -0.00627463264390826225 4.43290185928344727 141 88 74
1.36004805564880371 -0.817400157451629639 3.30253481864929199 174 174 174
0.497116416692733765 0.000884130655322223902 4.27225494384765625 145 86 72
8.66382026672363281 -1.60634112358093262 4.84402036666870117 205 198 190
11.8706731796264648 -0.822282850742340088 4.93252277374267578 203 193 184
-5.48072910308837891 -0.0418631695210933685 4.81664800643920898 206 198 187
3.02222990989685059 -0.462601333856582642 4.18093013763427734 159 114 93
4.14104843139648438 0.848937630653381348 5.02213811874389648 182 166 153
2.97972273826599121 -0.457116425037384033 3.88180947303771973 135 71 58
3.77733016014099121 0.788072526454925537 5.00531578063964844 206 196 186
11.8706731796264648 -0.822282850742340088 4.93252277374267578 203 193 184
-2.598846435546875 0.210173040628433228 3.33816432952880859 169 169 169
11.3194894790649414 -0.912536203861236572 4.92227649688720703 205 196 182
1.26284229755401611 0.159663736820220947 4.91470575332641602 189 167 154
2.78410720825195312 -0.947665631771087646 3.29777669906616211 205 193 181
-1.9058234691619873 0.95441824197769165 4.90368413925170898 207 204 197
5.45375585556030273 0.957167565822601318 5.0133967399597168 202 190 176
2.9567110538482666 -0.997561812400817871 4.17260646820068359 104 62 46
2.94922876358032227 -0.931590080261230469 3.6295778751373291 160 127 110
11.4884023666381836 -1.07104825973510742 4.91820001602172852 207 197 188
-0.357140034437179565 -0.137080565094947815 4.50362110137939453 154 97 80
2.9299771785736084 -0.879094839096069336 3.85627150535583496 108 64 55
5.6808624267578125 0.499914824962615967 4.96630668640136719 205 191 178
2.97813034057617188 -0.861654102802276611 3.87847733497619629 188 163 152
2.79350781440734863 -0.371575802564620972 3.34228420257568359 183 136 130
1.25572764873504639 0.143827915191650391 4.8885340690612793 185 167 153
11.5517120361328125 -0.736006736755371094 4.93017053604125977 206 198 185
2.80653738975524902 -0.38814118504524231 3.348236083984375 73 40 33
-3.2344357967376709 0.0893345028162002563 4.87218332290649414 207 194 186
3.01154518127441406 -0.497640699148178101 3.69615674018859863 118 74 63
0.432093977928161621 0.0284004844725131989 4.68360137939453125 111 63 49
2.33280444145202637 -0.453729242086410522 4.66971063613891602 157 112 91
2.94629383087158203 -0.412579536437988281 3.83194875717163086 149 97 84
1.93794691562652588 -0.388020575046539307 3.3378298282623291 185 138 118
11.5795488357543945 -1.23935818672180176 4.89191389083862305 204 197 191
8.44426155090332031 -1.12057352066040039 4.87360095977783203 207 197 188
2.9299771785736084 -0.879094839096069336 3.85627150535583496 108 64 55
0.709264516830444336 -0.0029584178701043129 4.23686885833740234 201 171 163
0.685705482959747314 0.0317239277064800262 4.68049907684326172 100 60 52
7.56811714172363281 -0.639417111873626709 4.90086984634399414 191 178 169
2.97237277030944824 -0.807022035121917725 3.77386116981506348 184 156 148
-2.85799026489257812 0.145986005663871765 4.01620054244995117 131 133 132
3.0034027099609375 -0.53901374340057373 3.56200480461120605 104 57 43
1.41650724411010742 -0.185598492622375488 4.40801095962524414 98 55 44
-0.137304157018661499 -0.0931109637022018433 4.28360986709594727 110 62 48
2.67154145240783691 -0.42424359917640686 3.34008121490478516 136 85 78
2.98276591300964355 -0.553839325904846191 3.50517773628234863 185 141 128
2.35552811622619629 -0.909733116626739502 3.30870389938354492 117 84 74
2.98141622543334961 -0.786778271198272705 3.49635887145996094 152 113 102
-5.27881193161010742 1.12210428714752197 4.9253230094909668 207 194 187
2.96488714218139648 -0.802210390567779541 4.03797197341918945 166 132 122
2.49526882171630859 -0.800159990787506104 3.318084716796875 132 118 110
6.56775379180908203 -1.60881626605987549 4.82562160491943359 188 174 165
-2.64087104797363281 0.179123580455780029 3.53762269020080566 171 171 171
-6.40117216110229492 1.07323873043060303 4.89509868621826172 204 195 188
2.40444207191467285 -0.800736725330352783 3.33241677284240723 192 178 169
6.42432641983032227 -1.44633889198303223 4.83481979370117188 189 172 160
3.01187682151794434 -0.888108789920806885 4.84644222259521484 204 186 164
2.656890869140625 -0.883433163166046143 3.31377339363098145 129 82 70
2.74910449981689453 -0.727780044078826904 3.32361626625061035 190 160 150
0.997466623783111572 -0.0789259746670722961 3.79681563377380371 107 60 50
2.95587801933288574 -0.705973803997039795 4.29826068878173828 186 152 137
-1.63239634037017822 0.170576661825180054 3.6253046989440918 163 163 163
2.97745084762573242 -0.529409527778625488 4.2488560676574707 123 67 49
-2.78753352165222168 0.198984220623970032 3.34607934951782227 178 178 178
3.62377452850341797 0.853486716747283936 4.93306207656860352 204 191 175
2.97161746025085449 -0.477582573890686035 4.69546842575073242 152 124 111
2.98106098175048828 -0.90429455041885376 4.19464969635009766 107 59 47
5.31233644485473633 0.482691973447799683 4.96612977981567383 206 196 187
2.97906851768493652 -0.886878550052642822 3.69460511207580566 167 127 115
-1.72778880596160889 0.139239192008972168 4.18894624710083008 164 164 164
1.58205592632293701 -0.893449604511260986 3.30334854125976562 195 162 143
0.145155280828475952 -0.0629974529147148132 4.00494194030761719 123 74 59
-0.0304931998252868652 -0.0400540009140968323 4.37164163589477539 151 99 80
2.98194241523742676 -0.771201670169830322 3.49912858009338379 102 61 53
-2.04671525955200195 0.175997957587242126 3.61407780647277832 164 164 164
2.97586393356323242 -0.919219613075256348 4.7724604606628418 118 69 52
-2.4058220386505127 0.2024555504322052 3.28337693214416504 188 188 188
2.98628544807434082 -0.745277464389801025 3.74335241317749023 78 42 33
2.98630976676940918 -0.735189557075500488 3.87186646461486816 100 50 39
2.97446775436401367 -0.589816510677337646 4.41245794296264648 159 106 91
2.92272019386291504 -0.619467198848724365 3.3382110595703125 154 124 116
1.92256760597229004 -0.720305919647216797 3.33011031150817871 111 71 61
2.97273969650268555 -0.610672891139984131 4.10587835311889648 139 103 91
6.21442937850952148 0.643007159233093262 4.98417758941650391 184 162 141
2.97548437118530273 -0.609418869018554688 4.41312599182128906 107 67 51
2.97372269630432129 -0.887825548648834229 4.76433372497558594 155 103 89
5.10534000396728516 1.16199517250061035 5.01008749008178711 210 197 188
2.98635387420654297 -0.43345797061920166 3.7419896125793457 173 126 106
-1.65968751907348633 0.0690834373235702515 3.35632967948913574 179 179 179
2.98673462867736816 -0.45935511589050293 3.37391757965087891 111 65 52
2.72271847724914551 -0.8510703444480896 3.31659793853759766 129 85 72
2.96922111511230469 -0.510287642478942871 4.62235450744628906 136 98 86
2.65624523162841797 -0.899470210075378418 3.3126060962677002 166 129 114
2.65695691108703613 -0.531876742839813232 3.33911800384521484 198 171 164
2.53801608085632324 -0.920291304588317871 3.31170248985290527 132 112 101
2.55512881278991699 0.852573275566101074 4.96697330474853516 206 200 188
2.92096090316772461 -0.619572222232818604 3.34165477752685547 154 124 116
2.97133088111877441 -0.873563885688781738 4.79163694381713867 109 66 49
2.9896242618560791 -0.786929607391357422 3.40428996086120605 120 80 72
-3.00141334533691406 0.134594395756721497 4.27932929992675781 142 142 137
2.97576642036437988 -0.782697975635528564 4.09600830078125 186 150 138
5.21485519409179688 0.830795586109161377 4.99540281295776367 207 199 188
2.95784711837768555 -0.685124814510345459 3.33052778244018555 153 111 95
5.32174968719482422 -0.386201441287994385 4.87963485717773438 204 190 181
2.66557621955871582 -0.788409113883972168 3.32398557662963867 171 144 132
1.65621733665466309 -0.166175156831741333 4.74753332138061523 88 56 43
2.91920042037963867 -0.781728148460388184 3.32372856140136719 191 148 138
2.9776465892791748 -0.856692969799041748 4.70326566696166992 158 109 94
0.8133278489112854 -0.035498499870300293 3.96707868576049805 133 87 71
2.95627403259277344 -0.727777302265167236 3.32827877998352051 127 93 81
2.99516701698303223 -0.628175079822540283 3.55678415298461914 137 100 82
2.3189396858215332 -0.466117918491363525 4.7441248893737793 188 157 129
2.98627877235412598 -0.612872421741485596 3.83420538902282715 165 113 99
2.97662210464477539 -0.614362359046936035 4.31924962997436523 162 126 116
3.55549001693725586 1.18502533435821533 5.01326179504394531 184 166 154
2.98517060279846191 -0.560477018356323242 3.5833733081817627 127 85 69
0.783460855484008789 -0.062811627984046936 3.56531929969787598 118 75 58
3.00708389282226562 -0.476859062910079956 4.03889274597167969 128 88 76
3.73209333419799805 0.938824772834777832 4.98951435089111328 205 185 176
2.96517443656921387 -0.40910494327545166 3.76743388175964355 174 125 111
-3.51548910140991211 0.957576572895050049 4.91600465774536133 207 197 185
2.06243658065795898 -0.368977785110473633 3.33846068382263184 161 109 88
1.75139462947845459 -0.1970033198595047 4.86957550048828125 100 61 46
0.553552508354187012 -0.0594083294272422791 3.40735578536987305 162 119 102
2.90203189849853516 -0.913051307201385498 3.3171389102935791 192 156 140
2.97196722030639648 -0.469449788331985474 4.02993917465209961 121 82 67
-0.623641073703765869 0.21301683783531189 2.86067032814025879 104 65 50
0.755585968494415283 -0.0187619198113679886 4.1148829460144043 184 165 150
2.53087568283081055 -0.888468146324157715 3.31327676773071289 138 100 94
0.444284170866012573 -0.054316498339176178 3.57355237007141113 151 120 109
2.97002792358398438 -0.557757914066314697 4.83138751983642578 145 104 82
1.89839935302734375 -0.535129308700561523 3.33097028732299805 163 129 120
-4.82982444763183594 0.758925676345825195 4.9112401008605957 206 197 186
2.98268222808837891 -0.404559165239334106 3.80475211143493652 140 102 92
-1.89050507545471191 0.174285069108009338 3.37980461120605469 172 172 172
2.97892236709594727 -0.80564725399017334 4.09832572937011719 110 72 61
-0.916474044322967529 -1.05159533023834229 4.79525661468505859 191 179 174
-1.8337242603302002 0.145837768912315369 3.99073004722595215 144 144 144
1.27018892765045166 -0.251694351434707642 4.38706302642822266 163 149 136
4.53667116165161133 0.774770796298980713 4.96436882019042969 209 195 186
2.6966092586517334 -0.772908270359039307 3.32085204124450684 155 126 118
-2.35652875900268555 0.181684702634811401 3.36022734642028809 148 148 148
2.93382382392883301 -0.595781207084655762 3.34122896194458008 142 110 93
5.32773733139038086 0.826832413673400879 4.96972084045410156 184 168 155
1.17489314079284668 -0.200360894203186035 4.24216079711914062 135 92 83
-2.57981157302856445 0.186416774988174438 3.35725545883178711 145 145 145
0.628818213939666748 -1.48160219192504883 4.77764558792114258 207 196 184
2.27061080932617188 -0.445482224225997925 4.52024173736572266 157 126 105
2.05718255043029785 -0.55093073844909668 3.33177566528320312 146 117 106
1.34377539157867432 -0.208433791995048523 4.38506317138671875 138 98 86
1.40625607967376709 -0.698703110218048096 3.28424501419067383 178 178 178
-7.40624761581420898 1.0895078182220459 4.88927745819091797 204 193 187
6.07253885269165039 -0.294455647468566895 4.91884994506835938 203 193 183
11.893101692199707 -1.76233017444610596 4.86719560623168945 190 167 149
-6.64743566513061523 1.14601230621337891 4.90257740020751953 180 167 159
0.762344300746917725 -0.0712820142507553101 3.5930018424987793 158 115 96
3.01941537857055664 -0.64141535758972168 3.88900899887084961 132 79 58
11.893101692199707 -1.76233017444610596 4.86719560623168945 190 167 149
-3.6441798210144043 0.0659452751278877258 4.84839820861816406 206 192 182
2.42219638824462891 -0.782726407051086426 3.33342409133911133 145 127 117
2.9799501895904541 -0.807986021041870117 4.70223283767700195 118 56 43
-0.173273473978042603 -1.64110708236694336 4.75139331817626953 205 195 186
8.71538925170898438 -1.69294071197509766 4.84303855895996094 210 201 192
-2.02382731437683105 0.161885514855384827 3.3696141242980957 190 190 190
11.982975959777832 -1.27829217910766602 4.92084455490112305 192 173 161
12.1805734634399414 -1.21527647972106934 4.90328836441040039 208 198 189
1.72379684448242188 -0.149666175246238708 4.8603978157043457 113 79 70
2.76939034461975098 -0.748473942279815674 3.32762360572814941 131 91 79
2.90387773513793945 -0.660606145858764648 3.33005595207214355 169 133 122
-1.92724204063415527 -0.0060753626748919487 3.34828352928161621 147 147 147
-2.2024986743927002 0.145052209496498108 3.35412907600402832 183 183 183
3.03835892677307129 -0.829638540744781494 4.85645437240600586 201 187 174
-0.571342766284942627 -0.225846022367477417 4.87774848937988281 148 85 68
-2.82913446426391602 0.1916046142578125 3.35259151458740234 176 176 176
2.71581172943115234 -0.405196160078048706 4.75894021987915039 197 180 164
0.612327098846435547 -0.0587839968502521515 3.40203547477722168 122 78 60
2.99686455726623535 -0.63631671667098999 3.64564967155456543 186 150 133
8.71538925170898438 -1.69294071197509766 4.84303855895996094 210 201 192
-2.03164458274841309 -0.00745511148124933243 5.03712224960327148 137 137 137
2.98258638381958008 -0.598006069660186768 3.99019956588745117 183 151 140
2.99136900901794434 -0.636058568954467773 3.65013742446899414 186 150 133
-0.246838659048080444 -0.0369479991495609283 4.69157791137695312 175 132 114
2.98004436492919922 -0.885632216930389404 3.99848580360412598 97 51 38
2.98330473899841309 -0.81553804874420166 3.56479287147521973 166 134 123
1.93464386463165283 0.802542209625244141 4.92643404006958008 209 195 186
-0.116123609244823456 -0.0459477789700031281 4.57492160797119141 152 106 87
2.98387026786804199 -0.522436380386352539 3.6589970588684082 146 104 92
-4.46011638641357422 0.941833376884460449 4.90529298782348633 205 197 185
2.94621706008911133 -0.492251843214035034 4.3792724609375 173 131 115
-3.66330695152282715 0.961806833744049072 4.91352081298828125 184 175 165
3.01251506805419922 -0.944059431552886963 4.84818220138549805 202 182 163
3.03133630752563477 -0.669787406921386719 4.84510612487792969 207 195 188
5.59886026382446289 0.178078055381774902 4.95950937271118164 183 166 156
2.97809505462646484 -0.815949678421020508 3.57110214233398438 166 134 123
-0.0247913245111703873 -0.0935108289122581482 4.18496894836425781 115 59 46
2.94524908065795898 -0.820834517478942871 3.35359621047973633 183 147 135
2.97104430198669434 -0.933778703212738037 3.39371252059936523 133 98 79
2.68301939964294434 1.2135467529296875 4.99357175827026367 206 189 181
2.99140787124633789 -0.598387956619262695 3.52344465255737305 163 121 101
-0.209863945841789246 -0.146682485938072205 4.29690265655517578 100 49 31
2.50920367240905762 -0.344233781099319458 4.87613725662231445 208 190 180
-4.02243614196777344 0.86367875337600708 4.90676498413085938 186 168 158
0.761508941650390625 -0.0300560612231492996 3.89422154426574707 158 111 95
2.9836428165435791 -0.474643409252166748 3.74441051483154297 179 143 127
-2.14311456680297852 0.178611606359481812 3.36412167549133301 185 185 185
4.18625402450561523 -0.469326198101043701 4.88067817687988281 208 194 185
2.98651456832885742 -0.54433131217956543 3.82157063484191895 160 114 101
5.27791213989257812 -1.08417904376983643 4.84868335723876953 209 196 185
5.35818386077880859 0.828263223171234131 4.99269676208496094 183 166 158
2.96710848808288574 -0.455174177885055542 4.40432167053222656 158 116 92
3.71449589729309082 0.826456785202026367 4.96712303161621094 178 160 146
5.27791213989257812 -1.08417904376983643 4.84868335723876953 209 196 185
-0.0633277297019958496 -0.000756411347538232803 4.76062488555908203 143 87 70
3.50251269340515137 -0.940254807472229004 4.84635210037231445 212 199 190
2.9778437614440918 -0.786980748176574707 4.35676479339599609 159 117 103
-0.199898332357406616 -0.23309972882270813 4.43227624893188477 118 65 47
2.99692153930664062 -0.740521073341369629 3.33559203147888184 123 86 68
4.9361872673034668 -0.77929222583770752 4.86877632141113281 207 192 179
2.22735476493835449 -0.374459832906723022 3.50678825378417969 157 116 94
2.95026922225952148 -0.743506550788879395 4.27084255218505859 177 150 139
2.83782744407653809 -0.694431722164154053 3.32967162132263184 121 88 77
2.97650909423828125 -0.654046833515167236 4.10550260543823242 157 111 92
2.52147960662841797 -0.401176869869232178 3.84605669975280762 149 107 82
0.987310528755187988 -0.0697471648454666138 3.9237818717956543 142 94 82
2.97291278839111328 -0.97031092643737793 4.24087667465209961 173 133 119
2.31994843482971191 -0.908977985382080078 3.30851411819458008 169 137 128
2.98322153091430664 -0.48305472731590271 3.9988563060760498 198 184 173
2.5429680347442627 -0.428871184587478638 4.23150014877319336 136 85 66
2.93918704986572266 -1.02546465396881104 4.50828266143798828 107 57 46
2.98017215728759766 -0.914953649044036865 3.95017409324645996 129 88 73
0.809868097305297852 0.00574601069092750549 4.40900897979736328 132 79 70
2.9789121150970459 -0.921891212463378906 4.18237161636352539 179 135 125
2.31090974807739258 -0.834366559982299805 3.31365108489990234 108 75 66
2.96711063385009766 -0.891137421131134033 4.5157160758972168 160 116 103
-1.2795034646987915 0.772872090339660645 4.92451333999633789 211 202 193
2.96624636650085449 -0.880053818225860596 4.34368753433227539 103 55 41
2.57859253883361816 -0.737451076507568359 3.3235480785369873 137 100 89
-3.37191343307495117 1.28730285167694092 4.95391130447387695 207 194 185
2.97355985641479492 -0.835350275039672852 4.60624170303344727 111 62 45
-2.61680483818054199 0.183194756507873535 3.36088395118713379 181 181 181
-4.11307621002197266 1.08001852035522461 4.97026538848876953 185 171 162
2.97841501235961914 -0.757527053356170654 3.40721869468688965 159 122 113
2.25954580307006836 -0.895534396171569824 3.30927133560180664 165 135 125
5.98689413070678711 0.897367298603057861 5.00511932373046875 205 189 177
2.9559624195098877 -0.75974959135055542 4.60793352127075195 127 82 68
-2.05152106285095215 -0.148485749959945679 3.34269237518310547 191 191 191
2.97412848472595215 -0.732712388038635254 4.4663395881652832 173 143 135
2.98334670066833496 -0.573636651039123535 4.27421092987060547 142 93 76
2.98252511024475098 -0.497843712568283081 4.69003009796142578 180 153 139
3.01335978507995605 -0.515929102897644043 3.36581611633300781 142 104 89
-2.11727428436279297 -0.115777984261512756 3.3428657054901123 191 191 191
2.97520732879638672 -0.456785380840301514 4.07059097290039062 171 138 123
0.142711415886878967 0.0157892443239688873 4.79355049133300781 113 54 40
-2.70788979530334473 0.18745073676109314 3.37532138824462891 186 186 186
2.99953031539916992 -0.98833233118057251 4.2650299072265625 156 113 96
-1.93982839584350586 1.15057432651519775 4.94508600234985352 208 194 185
4.02995586395263672 1.00318682193756104 4.98580837249755859 207 193 180
2.96634531021118164 -0.978070914745330811 4.18440771102905273 155 115 99
1.10800278186798096 -0.021159052848815918 4.65144634246826172 90 43 37
-2.7277369499206543 0.171874016523361206 3.70045924186706543 128 130 129
2.97057437896728516 -0.929145574569702148 4.13385295867919922 111 68 52
0.296799063682556152 -0.049916531890630722 3.88995933532714844 127 80 62
7.75889062881469727 0.405814528465270996 4.98798704147338867 185 168 158
3.00583696365356445 -0.803735554218292236 3.31361675262451172 125 87 74
2.97748923301696777 -0.683412492275238037 4.64346599578857422 120 72 62
2.67455291748046875 -0.374704331159591675 3.46378970146179199 129 73 53
2.92956709861755371 -0.925530195236206055 3.32620620727539062 141 108 89
1.85382604598999023 -0.359563589096069336 3.43377542495727539 167 138 115
2.98034811019897461 -0.54911273717880249 3.41773056983947754 116 58 46
1.7196732759475708 -0.123552635312080383 4.88515377044677734 201 169 155
2.99303913116455078 -0.555107414722442627 3.62146186828613281 168 129 111
2.98038434982299805 -0.758960306644439697 4.4709019660949707 160 118 106
-2.4707636833190918 -0.195649430155754089 3.32305788993835449 189 189 189
2.97561812400817871 -0.64869457483291626 4.45320940017700195 97 55 39
2.76009082794189453 -0.386104285717010498 3.34798526763916016 140 98 80
2.9893946647644043 -0.606932520866394043 3.46964406967163086 138 96 77
2.87412667274475098 -0.845128238201141357 3.31270647048950195 150 108 94
2.98526692390441895 -0.493205666542053223 3.58404159545898438 114 72 58
-0.432488530874252319 -0.152473047375679016 4.61606836318969727 161 108 92
3.73038840293884277 1.00162088871002197 4.98332023620605469 182 158 146
2.99365401268005371 -0.665382683277130127 4.39690446853637695 142 93 79
3.39052581787109375 -1.26932179927825928 4.81998729705810547 207 196 186
-0.226411953568458557 0.0521524697542190552 4.8814692497253418 210 201 192
2.99854707717895508 -0.939681053161621094 4.41026735305786133 106 53 39
2.88637018203735352 -0.392208635807037354 3.77774500846862793 131 90 79
2.64496207237243652 -0.591063559055328369 3.33461308479309082 183 154 140
