ply
format ascii 1.0
element vertex 426
property float x
property float y
property float z
property uchar red
property uchar green
property uchar blue
end_header
3.33411884307861328 -0.370090723037719727 31.7616863250732422 103 93 91
3.09823107719421387 -0.736222982406616211 31.6805267333984375 143 143 140
3.14298295974731445 -0.73606574535369873 31.69720458984375 99 95 91
3.10692167282104492 -0.784336984157562256 31.6791114807128906 90 87 97
3.75559639930725098 -0.43563765287399292 31.6914863586425781 124 125 117
4.24768257141113281 -1.25577986240386963 31.4149417877197266 152 166 177
4.65203619003295898 0.0587262213230133057 31.6688728332519531 129 128 123
3.378692626953125 -0.516393959522247314 31.6704521179199219 147 153 143
4.65706491470336914 0.0569993257522583008 31.6843090057373047 129 128 123
4.72000885009765625 0.117869123816490173 31.6745319366455078 120 122 111
4.20498991012573242 -1.34451436996459961 31.4115066528320312 160 175 178
3.08934307098388672 -0.418059498071670532 31.8522014617919922 141 150 145
3.48090624809265137 -1.18784487247467041 31.6332569122314453 152 153 147
3.11385679244995117 -0.852820813655853271 31.6584625244140625 145 153 155
3.92827105522155762 -0.565390646457672119 31.6701431274414062 149 158 157
3.66996026039123535 -0.705634117126464844 31.6543788909912109 117 114 106
3.67033624649047852 -0.703770458698272705 31.6559486389160156 117 114 106
4.60181379318237305 0.0116038881242275238 31.6721687316894531 120 119 115
3.27897334098815918 -0.584766030311584473 31.7082805633544922 146 150 151
4.82317304611206055 -1.54931485652923584 31.2567882537841797 126 122 121
4.4736018180847168 -1.51497948169708252 31.4007282257080078 151 157 169
4.37484407424926758 -1.4493783712387085 31.4385871887207031 152 161 160
4.31559658050537109 0.227959170937538147 31.7414894104003906 146 161 154
4.93347692489624023 -1.34241700172424316 31.3102207183837891 154 159 161
4.51080036163330078 -0.861526012420654297 31.4850654602050781 124 125 120
4.63004541397094727 -0.00882376544177532196 31.6046619415283203 153 162 169
3.71247768402099609 -0.753404736518859863 31.6579780578613281 156 164 166
3.48320889472961426 -0.503594398498535156 31.7028026580810547 145 154 149
4.44859123229980469 -0.031144244596362114 31.6688938140869141 154 161 167
4.76264047622680664 0.0893560349941253662 31.6295890808105469 158 162 171
3.90416145324707031 -1.17603147029876709 31.5412712097167969 97 96 92
4.89351367950439453 -1.50488245487213135 31.2930831909179688 151 160 169
4.45317506790161133 -1.3184044361114502 31.4364738464355469 123 122 117
3.57421636581420898 -1.25062704086303711 31.6180343627929688 149 160 154
4.76908731460571289 -1.23645341396331787 31.4058170318603516 111 99 96
4.7308344841003418 -1.13162446022033691 31.4411907196044922 149 158 157
4.87366819381713867 -1.42268753051757812 31.3386573791503906 112 112 112
3.04032707214355469 -0.765875577926635742 31.7222194671630859 144 144 142
3.12594509124755859 -0.613133907318115234 31.7331752777099609 149 147 148
5.1723785400390625 -0.596962869167327881 31.4015140533447266 149 153 152
4.47991752624511719 -1.19442260265350342 31.4393806457519531 133 133 133
3.19025087356567383 -0.513969004154205322 31.7053260803222656 141 144 138
4.13346052169799805 -0.637935996055603027 31.5442352294921875 113 107 95
4.1965641975402832 -0.0192864388227462769 31.6782054901123047 119 118 113
5.2072906494140625 -0.445886909961700439 31.4455604553222656 154 160 158
4.59298992156982422 -1.59023559093475342 31.3677597045898438 150 149 154
5.15855503082275391 0.0871809422969818115 31.4544696807861328 0 0 0
4.40448760986328125 -0.950749099254608154 31.5181407928466797 162 175 171
4.67325735092163086 -1.3288191556930542 31.4065570831298828 155 153 156
3.35429787635803223 -0.473466873168945312 31.7012901306152344 139 141 130
4.49978017807006836 0.0675032138824462891 31.6727828979492188 157 167 179
3.39157724380493164 0.397509902715682983 31.8802719116210938 125 111 102
4.26585149765014648 -1.39633715152740479 31.4340915679931641 130 124 108
3.23086118698120117 -0.803370654582977295 31.6496639251708984 149 159 168
4.50032520294189453 0.124802403151988983 31.6646537780761719 158 172 185
4.12390995025634766 -0.5678902268409729 31.6334362030029297 110 99 81
5.57039833068847656 -0.174574464559555054 31.2487030029296875 147 152 156
4.20918178558349609 0.0290529821068048477 31.5122528076171875 126 121 109
4.12390995025634766 -0.5678902268409729 31.6334362030029297 110 99 81
4.85902595520019531 -1.18098223209381104 31.3781471252441406 141 141 146
5.14181184768676758 -0.406631588935852051 31.5059661865234375 125 113 97
4.61845254898071289 -0.112518355250358582 31.6287384033203125 150 164 178
4.138824462890625 -1.51051247119903564 31.4098300933837891 152 159 152
4.84137725830078125 -0.034411747008562088 31.6417522430419922 144 132 136
3.93588376045227051 -0.666972517967224121 31.6235370635986328 150 156 146
4.68965482711791992 -0.591571152210235596 31.4890518188476562 157 163 163
5.01174354553222656 -0.527331233024597168 31.4683494567871094 149 146 149
3.82518720626831055 -0.853534042835235596 31.6293087005615234 150 157 163
3.8287205696105957 -0.174025431275367737 31.7797679901123047 123 110 94
4.02193403244018555 0.0225917082279920578 31.6944866180419922 161 169 172
4.34400796890258789 0.0757554024457931519 31.6366424560546875 153 162 161
3.31635856628417969 -1.28031241893768311 31.5222396850585938 150 153 162
3.44331955909729004 -0.944024741649627686 31.5322303771972656 151 162 164
3.44331955909729004 -0.944024741649627686 31.5322303771972656 151 162 164
3.5289008617401123 -0.615301787853240967 31.6212062835693359 153 154 158
4.5659332275390625 -0.508599221706390381 31.5711936950683594 115 107 89
4.32508754730224609 -1.10847783088684082 31.4412040710449219 155 169 180
4.5659332275390625 -0.508599221706390381 31.5711936950683594 115 107 89
4.06157207489013672 -1.15845584869384766 31.4886531829833984 151 155 154
3.67488765716552734 -0.0195699427276849747 31.8023338317871094 163 169 162
5.1949925422668457 -1.68445885181427002 31.2471275329589844 110 115 119
3.00623035430908203 -0.874195992946624756 31.7229080200195312 144 151 144
3.5894157886505127 -0.96447145938873291 31.6283740997314453 120 127 120
2.93768858909606934 -0.755845963954925537 31.7360439300537109 150 153 158
4.9354100227355957 -1.17561852931976318 31.3187484741210938 0 0 0
3.62461972236633301 -0.698977291584014893 31.700592041015625 146 160 153
3.71848940849304199 -0.514704048633575439 31.7283401489257812 152 173 170
3.76659584045410156 0.314179569482803345 31.7809619903564453 162 162 160
4.33855104446411133 -0.990872800350189209 31.4657115936279297 132 136 135
3.40260839462280273 -1.59854793548583984 31.5710659027099609 120 112 109
4.95298051834106445 -0.72238999605178833 31.469390869140625 137 126 124
3.82135891914367676 -1.4875873327255249 31.4841194152832031 148 149 144
4.80909585952758789 -1.46525132656097412 31.3259658813476562 150 149 154
3.65166783332824707 -1.40404987335205078 31.5720996856689453 143 152 149
3.79100632667541504 -0.769429028034210205 31.7352027893066406 125 134 129
4.23372888565063477 -1.19970941543579102 31.4982948303222656 133 138 131
4.39988517761230469 -0.842649459838867188 31.4623336791992188 130 127 122
4.99227333068847656 -0.871138334274291992 31.4492168426513672 158 160 159
3.77018904685974121 -0.489305585622787476 31.7151298522949219 153 166 159
3.77171516418457031 -1.31839656829833984 31.5218086242675781 147 151 152
3.42673921585083008 -0.316375792026519775 31.7537574768066406 144 149 143
4.45645713806152344 0.144978195428848267 31.693511962890625 129 131 126
3.83280467987060547 -0.0554718300700187683 31.7725639343261719 124 124 116
4.04363536834716797 -1.59321117401123047 31.4331302642822266 138 132 134
4.72755956649780273 -1.41608631610870361 31.3512649536132812 121 117 118
3.97058391571044922 -1.13675558567047119 31.5581245422363281 147 148 142
5.43818140029907227 -0.226836457848548889 31.4409465789794922 138 124 112
3.89275693893432617 -0.520425736904144287 31.6659812927246094 130 129 122
4.33267736434936523 -0.561257421970367432 31.5660629272460938 155 169 172
4.33631706237792969 -0.57120358943939209 31.5733566284179688 155 169 172
5.27999210357666016 -0.185675621032714844 31.4510841369628906 142 132 131
3.45515894889831543 -0.400660127401351929 31.7162494659423828 118 106 92
3.54361867904663086 0.191188141703605652 31.8455352783203125 153 155 142
4.79648733139038086 -1.08207476139068604 31.43658447265625 110 100 88
4.79648733139038086 -1.08207476139068604 31.43658447265625 110 100 88
4.72714471817016602 -1.41355741024017334 31.2923469543457031 117 114 109
5.00890302658081055 -0.764508843421936035 31.4431571960449219 152 150 152
4.16820812225341797 -0.649340271949768066 31.5954437255859375 151 158 151
3.69045782089233398 0.391053289175033569 31.7960357666015625 157 153 141
4.05076837539672852 -0.52134329080581665 31.6757717132568359 141 143 132
4.23221826553344727 0.128751993179321289 31.7550849914550781 123 118 112
3.57723808288574219 -0.700169801712036133 31.903106689453125 128 137 132
4.92882776260375977 -0.882805943489074707 31.4025993347167969 149 159 158
3.5414893627166748 -1.55175578594207764 31.5632057189941406 144 142 143
4.0303044319152832 -0.810197174549102783 31.5837421417236328 105 89 73
4.0303044319152832 -0.810197174549102783 31.5837421417236328 105 89 73
4.4697718620300293 0.147488623857498169 31.7029266357421875 137 144 154
4.4697718620300293 0.147488623857498169 31.7029266357421875 137 144 154
5.14797830581665039 -1.61611127853393555 31.2802925109863281 102 106 117
3.75328516960144043 -1.11760830879211426 31.5990161895751953 146 150 153
4.17038536071777344 -0.027361597865819931 31.71337890625 143 133 124
4.85894536972045898 -0.4826488196849823 31.5494365692138672 149 148 153
2.98370957374572754 -1.03512167930603027 31.7048244476318359 147 157 149
3.07495284080505371 -0.684641003608703613 31.7603225708007812 106 103 98
3.78707337379455566 -0.352617353200912476 31.6987247467041016 125 118 112
4.05935382843017578 0.368088752031326294 31.7937488555908203 156 171 176
3.36828184127807617 -0.270090639591217041 31.7757396697998047 128 120 117
4.38845205307006836 -0.986032783985137939 31.4900493621826172 168 180 180
4.05066490173339844 0.0171095486730337143 31.7608585357666016 158 167 166
3.89990854263305664 -0.31543770432472229 31.7191028594970703 153 165 165
2.91479039192199707 -1.38595974445343018 31.6326770782470703 145 150 152
5.13805961608886719 -1.70552098751068115 31.1778659820556641 0 0 0
5.19318628311157227 -1.62114846706390381 31.2773494720458984 107 115 128
5.02919721603393555 -0.759436845779418945 31.2991485595703125 147 151 152
5.14797830581665039 -1.61611127853393555 31.2802925109863281 102 106 117
4.05126667022705078 -1.73567855358123779 31.5416431427001953 142 134 131
4.71026277542114258 -1.50349044799804688 31.3688449859619141 117 111 116
4.71011781692504883 -1.50314688682556152 31.3575878143310547 117 111 116
4.08901548385620117 -0.469949334859848022 31.6062564849853516 189 191 178
3.97024250030517578 -0.990718424320220947 31.5524959564208984 110 106 103
4.01245737075805664 -0.760077714920043945 31.5948944091796875 132 130 121
4.04161167144775391 -0.672012507915496826 31.6071147918701172 134 133 123
4.14141225814819336 -0.618662774562835693 31.6132354736328125 114 108 94
4.596923828125 -0.562048852443695068 31.5278053283691406 144 145 137
3.73156905174255371 -1.07867121696472168 31.4884586334228516 144 153 158
4.62877702713012695 -0.379117727279663086 31.5535850524902344 143 149 147
4.180419921875 -0.0888155922293663025 31.6991138458251953 117 119 114
4.73868608474731445 0.025740012526512146 31.6405735015869141 149 153 162
4.98374319076538086 -1.17025268077850342 31.3541603088378906 139 153 154
4.76935052871704102 0.150962904095649719 31.6732902526855469 100 98 99
3.67098093032836914 -0.859721839427947998 31.6256732940673828 149 158 155
4.31444025039672852 -1.19635212421417236 31.5300636291503906 157 176 190
3.7331538200378418 -0.83659052848815918 31.6576900482177734 132 134 137
3.85299825668334961 -0.714690685272216797 31.6512794494628906 151 162 164
3.0166165828704834 -0.181551247835159302 31.7005252838134766 147 151 150
3.24491357803344727 -0.468388855457305908 31.7559165954589844 145 147 136
2.92097210884094238 -1.30902600288391113 31.6020412445068359 151 164 172
4.62278938293457031 -0.433785021305084229 31.5518436431884766 127 118 103
4.62271690368652344 -0.430664658546447754 31.5509128570556641 127 118 103
4.42767238616943359 -0.180583298206329346 31.6619701385498047 156 161 167
3.5770573616027832 -1.60576915740966797 36.4958381652832031 118 117 115
4.51810646057128906 0.00185368966776877642 31.6612815856933594 148 159 163
4.16052770614624023 -0.644040465354919434 31.5179309844970703 146 155 149
4.601806640625 0.0118254143744707108 31.6638565063476562 120 119 115
3.53695893287658691 -1.52839243412017822 31.5335540771484375 144 140 141
4.77884292602539062 0.161561533808708191 31.6814651489257812 125 120 116
3.37369179725646973 -1.29654920101165771 31.6694564819335938 0 0 0
4.69491100311279297 0.314622044563293457 31.6140384674072266 121 119 120
4.13418149948120117 -0.574779748916625977 31.6254253387451172 125 119 103
4.96351003646850586 0.363622277975082397 31.7080421447753906 140 122 118
3.98354721069335938 -0.839878201484680176 31.6065540313720703 140 135 118
4.88495826721191406 -1.22375476360321045 31.3750343322753906 145 150 153
4.42924070358276367 -1.47117841243743896 31.3916645050048828 141 140 138
3.20860862731933594 -0.627538800239562988 31.7255992889404297 97 93 94
4.15247774124145508 -0.433676093816757202 31.657745361328125 119 116 111
3.57100749015808105 -0.245876863598823547 31.7565212249755859 156 167 163
4.15320682525634766 -0.171917065978050232 31.6732177734375 120 121 115
4.23465347290039062 0.0997946709394454956 31.7069587707519531 119 118 113
4.87094736099243164 -0.0509640946984291077 31.5916347503662109 143 127 128
4.15187740325927734 -0.434933930635452271 31.6543350219726562 114 115 109
4.37476873397827148 -1.44979798793792725 31.4353446960449219 152 158 158
4.18510723114013672 0.280157089233398438 31.7672958374023438 149 153 154
2.60944652557373047 -0.833486795425415039 31.7898616790771484 137 141 144
3.09313654899597168 -0.566374063491821289 31.8473911285400391 147 152 146
4.22956562042236328 -1.06395208835601807 31.5703468322753906 145 151 149
3.35399365425109863 -0.474430978298187256 31.7030086517333984 142 142 142
4.41183948516845703 -0.354550212621688843 31.5739631652832031 150 167 175
4.72744464874267578 -1.40718817710876465 31.372528076171875 117 113 112
4.138824462890625 -1.51051247119903564 31.4098300933837891 152 159 152
3.73086810111999512 -0.845166921615600586 31.6681480407714844 136 139 130
3.92393088340759277 -1.27845668792724609 31.5860004425048828 152 152 150
2.90337705612182617 -1.0057903528213501 31.4904899597167969 85 84 89
3.97129726409912109 -0.988952815532684326 31.5564060211181641 103 104 98
3.69475460052490234 -0.912778019905090332 31.6408939361572266 126 135 132
4.8326420783996582 -0.900859236717224121 31.4512844085693359 135 133 136
4.53045940399169922 -0.756429672241210938 31.4977531433105469 122 122 122
3.3747246265411377 -0.663854837417602539 31.5449409484863281 98 93 97
3.58896899223327637 -0.641519546508789062 31.7208213806152344 129 141 141
4.38003969192504883 -0.15150587260723114 31.7227001190185547 71 72 72
3.58896899223327637 -0.641519546508789062 31.7208213806152344 129 141 141
2.62749433517456055 -0.298369705677032471 31.8403949737548828 141 145 144
4.75028896331787109 -1.34671711921691895 31.6872673034667969 0 0 0
2.59267306327819824 -0.144074380397796631 32.0283279418945312 103 99 99
3.4763493537902832 -1.18644893169403076 31.5720863342285156 149 153 152
3.40282177925109863 -1.11194396018981934 31.6615791320800781 123 127 126
3.96313881874084473 -0.983227849006652832 31.5386581420898438 108 105 96
3.41270208358764648 -1.11534738540649414 31.7117557525634766 123 127 126
4.29698801040649414 -1.08247482776641846 31.4531383514404297 129 130 132
4.48294734954833984 -0.863659322261810303 31.5543365478515625 150 152 148
5.45706605911254883 -1.33720839023590088 31.1558094024658203 151 158 149
4.55696535110473633 -0.87275087833404541 31.4784660339355469 145 156 158
3.38659167289733887 -0.552278995513916016 31.5305843353271484 99 96 87
3.86104393005371094 -1.64160609245300293 31.4130115509033203 146 146 146
3.40648365020751953 -0.559489011764526367 31.6139469146728516 99 96 87
3.71086955070495605 -0.31100541353225708 31.7226696014404297 120 129 124
3.64895153045654297 -1.39118278026580811 31.5693378448486328 0 0 0
4.2443699836730957 0.021967623382806778 31.6725788116455078 143 154 154
3.92191672325134277 0.106929674744606018 31.8938636779785156 125 131 131
5.46993732452392578 -1.30950784683227539 31.2557220458984375 93 83 73
4.38097238540649414 -1.05123341083526611 31.5225028991699219 160 176 191
3.4664313793182373 -1.04752850532531738 31.6030101776123047 0 0 0
3.06793475151062012 -0.957706034183502197 31.6834716796875 143 147 146
5.32261323928833008 -0.464523345232009888 31.4285106658935547 152 160 163
3.79100632667541504 -0.769429028034210205 31.7352027893066406 128 134 132
4.83241176605224609 -0.900200426578521729 31.4507560729980469 127 123 120
3.63965487480163574 -0.683012127876281738 31.7627620697021484 146 164 166
3.71190357208251953 -0.584100127220153809 31.6817817687988281 122 126 129
3.85736751556396484 -0.589288771152496338 31.6185970306396484 123 129 127
3.85736751556396484 -0.589288771152496338 31.6185970306396484 123 129 127
2.81107735633850098 -0.579479455947875977 31.8707141876220703 98 85 81
4.92992734909057617 -1.1836092472076416 31.2751674652099609 119 110 103
3.47161388397216797 -0.295318067073822021 31.7228584289550781 125 125 125
3.29443883895874023 -0.174651563167572021 32.0042457580566406 116 120 119
4.16021633148193359 -0.170684903860092163 31.7013225555419922 122 120 116
4.28816461563110352 -1.23653364181518555 31.5650310516357422 134 143 140
3.99524354934692383 0.358360320329666138 31.8149604797363281 124 129 123
2.93687105178833008 -0.0661282166838645935 32.5664520263671875 141 140 135
2.71329498291015625 -1.5453106164932251 31.6364707946777344 152 165 174
3.67449545860290527 -1.48212814331054688 31.5736980438232422 114 104 94
4.45974206924438477 -0.840786755084991455 31.4300193786621094 153 162 161
4.452850341796875 -1.31985306739807129 31.4352760314941406 123 121 123
4.10790491104125977 -0.0641212239861488342 31.7544307708740234 0 0 0
3.53562784194946289 -1.15263152122497559 31.5857734680175781 111 111 107
3.53297138214111328 -1.15027034282684326 31.5724945068359375 111 111 107
5.42279672622680664 -1.50217771530151367 31.1746044158935547 160 174 178
3.36896777153015137 -0.270532399415969849 31.7760410308837891 116 116 111
3.7456812858581543 0.437975853681564331 31.8767967224121094 151 152 147
3.41224837303161621 -1.32976996898651123 31.6450614929199219 146 155 162
3.52267670631408691 -0.993424773216247559 31.62933349609375 149 168 166
4.61896085739135742 -0.0948454737663269043 31.6475028991699219 145 158 166
2.92413687705993652 -0.087018139660358429 31.9766693115234375 105 87 73
4.29970169067382812 0.449462890625 31.7332916259765625 115 108 92
3.34170222282409668 0.136177286505699158 31.7950592041015625 153 146 140
2.8749840259552002 -1.3655550479888916 31.4056434631347656 146 156 165
4.56524133682250977 0.407249093055725098 31.5169925689697266 126 122 124
3.33219027519226074 -0.338590353727340698 31.7692470550537109 131 132 118
3.37311291694641113 -0.594003140926361084 31.5285720825195312 142 153 149
3.37311291694641113 -0.594003140926361084 31.5285720825195312 142 153 149
4.28631401062011719 0.248495131731033325 31.7448177337646484 120 120 114
2.83528685569763184 -1.17707991600036621 31.6103763580322266 150 148 149
3.89777898788452148 -1.1114422082901001 31.5126018524169922 130 137 137
3.53657627105712891 -0.234764143824577332 31.7542438507080078 137 139 136
4.26669502258300781 -1.31089138984680176 31.4446201324462891 135 135 127
3.91832184791564941 -1.21517324447631836 31.4943752288818359 147 148 145
2.23372626304626465 -1.00314760208129883 28.9995822906494141 151 152 156
4.11371946334838867 -0.550464034080505371 31.6310653686523438 105 89 76
3.31222724914550781 -0.486504465341567993 31.7304248809814453 135 154 151
3.93815135955810547 0.112056337296962738 31.7559967041015625 142 160 162
4.51020669937133789 0.188573271036148071 31.6759796142578125 154 164 173
4.07063961029052734 -0.849918007850646973 31.5540733337402344 139 136 131
4.15553998947143555 -0.656660318374633789 31.5620822906494141 155 160 153
4.17032957077026367 -0.538364589214324951 31.6213951110839844 115 105 93
4.27913522720336914 0.1011829674243927 31.7034873962402344 141 156 155
4.42924070358276367 -1.47117841243743896 31.3916645050048828 141 140 138
4.14139270782470703 -1.27478623390197754 31.4776630401611328 154 162 164
4.21651363372802734 -0.544485032558441162 31.6225681304931641 146 148 140
3.84840917587280273 -0.196555078029632568 31.7734699249267578 114 105 88
4.48423624038696289 0.454551130533218384 31.5224895477294922 155 159 169
3.51142263412475586 -1.42809391021728516 31.5540122985839844 144 148 152
4.73854494094848633 0.0262946914881467819 31.6353759765625 145 154 161
3.82872509956359863 -0.172281473875045776 31.7802982330322266 87 78 67
3.23369288444519043 0.00637619476765394211 31.8068637847900391 0 0 0
3.71415233612060547 0.377673536539077759 31.9942512512207031 150 151 145
3.91982245445251465 0.196501106023788452 32.304901123046875 146 158 159
3.40631103515625 -0.619156002998352051 31.6388454437255859 0 0 0
3.64532065391540527 -0.812562346458435059 31.6653423309326172 131 132 124
4.18645715713500977 0.226038128137588501 31.7474098205566406 165 170 173
4.83977079391479492 -0.0232490450143814087 31.6239566802978516 153 142 148
4.07703971862792969 -1.1775137186050415 31.6422195434570312 0 0 0
4.43117570877075195 -0.342615395784378052 31.6232223510742188 0 0 0
5.49149608612060547 -1.41223263740539551 31.126678466796875 144 155 156
5.14570903778076172 -1.65526974201202393 31.3180179595947266 143 146 155
5.07182979583740234 -1.25508201122283936 31.3741035461425781 0 0 0
4.80021524429321289 -0.97657012939453125 31.3977870941162109 116 113 104
3.26243782043457031 -1.3854604959487915 31.6674232482910156 140 152 152
4.16085386276245117 -1.34897935390472412 31.5201129913330078 132 133 128
4.26443290710449219 -1.29987239837646484 31.5037746429443359 133 133 121
4.01248550415039062 -0.765187203884124756 31.6114482879638672 0 0 0
4.52414941787719727 -0.0516980849206447601 31.7208690643310547 122 121 116
4.8411097526550293 0.157129377126693726 31.5419902801513672 149 147 152
5.46993732452392578 -1.30950784683227539 31.2557220458984375 93 83 73
4.24961471557617188 -1.24718880653381348 31.4122352600097656 160 174 182
4.93079376220703125 -1.18128645420074463 31.2625579833984375 119 110 103
3.50862860679626465 -0.922029197216033936 31.7227935791015625 129 135 135
3.50862860679626465 -0.922029197216033936 31.7227935791015625 129 135 135
5.19241762161254883 -0.905008971691131592 31.3262462615966797 133 129 122
5.25058078765869141 -0.851650655269622803 31.3512077331542969 156 156 158
3.65472602844238281 -0.647200524806976318 31.6728649139404297 150 155 151
5.07062196731567383 -0.62397688627243042 31.4692192077636719 0 0 0
5.52482414245605469 -1.12601554393768311 31.4080524444580078 119 115 114
4.7783961296081543 0.16091783344745636 31.6704063415527344 129 122 112
3.43617701530456543 -1.65199446678161621 31.6237564086914062 137 141 142
5.02841091156005859 -1.23869585990905762 31.3714561462402344 142 135 121
3.75908541679382324 -0.931936740875244141 31.6993865966796875 160 164 159
4.95367622375488281 -0.72892463207244873 31.5013217926025391 145 130 125
4.92756843566894531 -0.670252084732055664 31.7809638977050781 156 159 160
5.01959323883056641 -0.781027257442474365 31.7068614959716797 0 0 0
5.07411098480224609 -0.712817728519439697 31.3917522430419922 109 106 101
4.36041927337646484 -1.0947338342666626 31.5988616943359375 143 143 143
5.07411098480224609 -0.712817728519439697 31.3917522430419922 109 106 101
5.11000823974609375 -0.600959897041320801 31.4440078735351562 106 100 88
3.4374382495880127 -1.13610363006591797 31.5678615570068359 0 0 0
5.04471731185913086 -0.0218312647193670273 31.4839763641357422 158 163 166
5.09453010559082031 -0.76082611083984375 31.3087177276611328 139 140 135
4.11895322799682617 -1.6523672342300415 31.4245624542236328 145 136 129
5.33403348922729492 -0.5992889404296875 31.2824726104736328 150 155 157
4.0176854133605957 -1.49905204772949219 31.4869098663330078 155 156 155
4.98135042190551758 -0.928744256496429443 31.3830070495605469 0 0 0
4.86803340911865234 -1.39185988903045654 31.2530250549316406 127 120 112
5.48295831680297852 -1.2834625244140625 31.4489574432373047 99 84 65
5.48295831680297852 -1.2834625244140625 31.4489574432373047 99 84 65
3.59988546371459961 -1.16310501098632812 31.8675575256347656 0 0 0
3.54404973983764648 -0.660701632499694824 31.7101879119873047 155 165 166
5.05427408218383789 -0.576680541038513184 31.3702449798583984 149 152 155
3.76984000205993652 -0.473719209432601929 31.6640129089355469 0 0 0
4.52372646331787109 -1.17550456523895264 31.400634765625 0 0 0
5.47459697723388672 -0.876125752925872803 31.3598003387451172 149 160 162
5.14063119888305664 -0.409365832805633545 31.4869842529296875 0 0 0
3.88339996337890625 -0.300306826829910278 31.6382064819335938 0 0 0
3.54359602928161621 -1.5537339448928833 31.5681800842285156 146 141 138
3.71499466896057129 -1.50153934955596924 31.444854736328125 0 0 0
3.52691340446472168 -0.642790377140045166 31.5890045166015625 0 0 0
5.23190975189208984 -1.13064229488372803 31.2742195129394531 150 157 150
4.28362178802490234 -1.16670441627502441 31.4124031066894531 0 0 0
5.32204723358154297 -1.59133446216583252 31.2955455780029297 135 122 129
4.08945798873901367 -0.469260811805725098 31.6431427001953125 189 191 178
4.58840560913085938 -0.609168887138366699 31.5379276275634766 112 109 104
5.25372648239135742 -0.744352638721466064 31.0984783172607422 113 114 114
3.8619542121887207 -0.572551548480987549 31.7593231201171875 123 120 113
4.07904195785522461 -0.447236955165863037 31.6301651000976562 159 166 159
4.45835781097412109 0.130151420831680298 31.5512351989746094 90 93 100
4.48502254486083984 0.219301924109458923 31.6406421661376953 97 95 100
4.18544435501098633 -1.70433604717254639 31.4024028778076172 145 148 149
5.04782867431640625 -0.0296042226254940033 31.5803146362304688 0 0 0
5.35625600814819336 -1.69337940216064453 31.1914882659912109 154 161 163
5.35625600814819336 -1.69337940216064453 31.1914882659912109 154 161 163
4.14710378646850586 -1.47734606266021729 31.4942417144775391 159 163 164
5.41377162933349609 -1.33070957660675049 31.2521820068359375 153 155 145
5.26504850387573242 -0.71568906307220459 31.0999298095703125 114 117 116
4.78578519821166992 -1.3756486177444458 31.7327594757080078 148 146 147
4.11128807067871094 -0.67875206470489502 31.2065296173095703 136 128 117
4.11506509780883789 -0.695204794406890869 31.5709972381591797 0 0 0
4.23469352722167969 0.114804744720458984 31.6720352172851562 130 126 121
5.16947746276855469 -0.641917586326599121 31.2837429046630859 169 167 168
5.64735221862792969 -0.17908477783203125 31.1465091705322266 144 146 135
4.09094047546386719 -1.59466791152954102 31.5242176055908203 156 158 157
5.49427270889282227 -1.61643576622009277 31.527618408203125 137 130 122
4.91333961486816406 -1.13823437690734863 31.2579116821289062 145 150 144
5.27126789093017578 -0.748017251491546631 31.34942626953125 149 153 152
5.14387941360473633 -0.568408429622650146 31.3626632690429688 140 141 125
5.43702316284179688 -0.226383179426193237 31.2622737884521484 138 124 112
5.32470703125 -0.544717907905578613 31.4056663513183594 119 119 119
5.32470703125 -0.544717907905578613 31.4056663513183594 119 119 119
4.23546314239501953 -1.58107030391693115 31.4112453460693359 150 162 162
3.80444931983947754 -0.205752193927764893 31.7274417877197266 0 0 0
4.22413158416748047 0.0248168464750051498 31.3161258697509766 133 135 124
4.20356273651123047 -1.6389617919921875 31.5756626129150391 156 170 174
4.20356273651123047 -1.6389617919921875 31.5756626129150391 156 170 174
3.47915315628051758 -1.35527145862579346 32.1924476623535156 142 140 143
4.76370954513549805 -1.09869468212127686 31.4170913696289062 148 150 139
5.0239109992980957 -0.996828436851501465 31.4174976348876953 0 0 0
3.9638364315032959 -0.803030848503112793 31.5959587097167969 120 113 103
4.69645547866821289 -0.595787644386291504 31.5037517547607422 0 0 0
5.11063528060913086 -0.694259107112884521 31.1219959259033203 141 139 140
5.36925363540649414 -0.392944067716598511 30.9907417297363281 121 127 125
5.44368076324462891 -0.0967794656753540039 31.5460243225097656 120 111 106
4.16830015182495117 -1.69051611423492432 31.4738559722900391 167 186 193
5.21468544006347656 -1.66034388542175293 31.421722412109375 141 146 150
3.69747066497802734 -1.54258239269256592 31.5960559844970703 137 129 118
3.61517953872680664 -1.33452177047729492 31.6233310699462891 132 130 115
4.17228221893310547 -0.0768516585230827332 31.4749908447265625 146 143 131
5.05085086822509766 -1.36383414268493652 31.2995433807373047 139 130 124
5.43719673156738281 -1.30921578407287598 31.2260971069335938 139 135 132
5.52432060241699219 -1.12455487251281738 31.3137302398681641 119 115 114
4.32994461059570312 -1.08813989162445068 31.4925918579101562 0 0 0
4.08525180816650391 -0.657480716705322266 31.4468708038330078 103 87 74
5.06984567642211914 -0.606757104396820068 31.4735240936279297 151 155 154
5.47154092788696289 -0.114942699670791626 31.2943572998046875 145 149 148
5.32110786437988281 -1.58754050731658936 31.2950992584228516 135 123 127
3.56017732620239258 -1.05524063110351562 31.5693683624267578 0 0 0
3.56499838829040527 -0.901123702526092529 31.5106906890869141 149 165 163
4.91594409942626953 -0.791235268115997314 31.3931007385253906 152 157 161
5.64323043823242188 -0.616899847984313965 30.6478977203369141 115 112 103
5.33452367782592773 -0.403176665306091309 30.9367733001708984 149 160 160
4.10783529281616211 -1.54975378513336182 31.3675956726074219 144 152 154
3.7773592472076416 -0.745994746685028076 31.7581729888916016 133 134 128
5.59858846664428711 -0.457374840974807739 31.698394775390625 151 155 155
5.14994335174560547 0.000876452366355806589 31.4752902984619141 160 164 163
5.54262208938598633 -1.57040059566497803 31.4569740295410156 147 149 161
4.87654733657836914 -1.09554934501647949 31.3211498260498047 150 151 146
4.73155450820922852 0.0144026735797524452 31.6256046295166016 0 0 0
4.73155450820922852 0.0144026735797524452 31.6256046295166016 0 0 0
3.93072414398193359 -0.667219340801239014 31.6180458068847656 158 157 152
4.23512983322143555 -1.08569419384002686 31.5962944030761719 139 144 141
5.31259346008300781 -0.188141122460365295 31.201324462890625 151 160 162
3.8825218677520752 0.0323952473700046539 31.7562923431396484 0 0 0
