ply
format ascii 1.0
element vertex 673
property float x
property float y
property float z
property uchar red
property uchar green
property uchar blue
end_header
5.96608972549438477 2.59822249412536621 43.1993522644042969 158 148 135
5.99404239654541016 2.05804562568664551 43.1797714233398438 136 170 195
5.3147430419921875 2.87033295631408691 43.3354644775390625 152 138 112
4.65499401092529297 2.40364360809326172 43.4051628112792969 153 131 112
6.12802267074584961 2.58016204833984375 43.1584358215332031 142 131 109
6.00910663604736328 1.3553004264831543 43.1032257080078125 131 153 174
4.04210662841796875 2.58826923370361328 43.4960670471191406 177 166 151
5.75712108612060547 1.45509743690490723 43.1750259399414062 186 194 190
4.80479335784912109 2.41748428344726562 43.3851242065429688 171 160 140
4.45319175720214844 2.24488019943237305 43.4323005676269531 172 159 136
4.944610595703125 2.67295646667480469 43.3824119567871094 163 152 127
4.16675138473510742 2.75976252555847168 43.4974822998046875 175 162 145
6.03775548934936523 1.93694818019866943 43.1820526123046875 137 176 194
4.17151355743408203 2.4651024341583252 43.4729385375976562 179 167 155
5.40041303634643555 2.83928823471069336 43.2848701477050781 171 163 145
5.90591621398925781 2.80800509452819824 43.196044921875 160 147 129
5.94623994827270508 2.00882887840270996 43.2088432312011719 234 255 255
4.96346187591552734 2.92879533767700195 43.3710708618164062 153 130 103
4.27399969100952148 2.33156180381774902 43.467010498046875 151 139 114
6.41418123245239258 1.22485363483428955 43.1276626586914062 138 125 103
4.92487001419067383 1.34650850296020508 43.3342323303222656 146 136 126
6.39982223510742188 2.47707056999206543 43.1407012939453125 197 224 235
5.26532459259033203 1.6156003475189209 43.3109512329101562 152 140 124
4.27795124053955078 2.22826409339904785 43.4902458190917969 171 159 146
6.79989528656005859 1.50622165203094482 43.0469818115234375 151 138 124
6.37147665023803711 1.52999389171600342 43.1319923400878906 128 110 83
6.46644401550292969 2.45906257629394531 43.0863609313964844 182 194 196
5.22340679168701172 1.9930647611618042 43.3080329895019531 168 157 139
4.54519891738891602 1.50201547145843506 43.4144058227539062 158 148 136
4.54517889022827148 1.50244033336639404 43.4128189086914062 158 148 136
6.50033473968505859 2.37797212600708008 43.0841102600097656 154 185 196
5.18854856491088867 2.61320710182189941 43.3341560363769531 163 155 144
5.36400127410888672 1.63409221172332764 43.2808113098144531 145 138 122
6.68617010116577148 1.71759271621704102 43.0822486877441406 149 140 123
6.28790283203125 2.54063606262207031 43.1066436767578125 78 92 102
5.45018815994262695 2.82463240623474121 43.2842521667480469 169 161 150
4.1871790885925293 2.00264334678649902 43.495208740234375 176 169 159
5.12854337692260742 1.88693475723266602 43.3239898681640625 161 154 135
6.30236959457397461 1.9937368631362915 43.137054443359375 111 97 67
3.84276390075683594 2.35291790962219238 43.515716552734375 171 162 146
6.80292034149169922 1.50699472427368164 43.0644073486328125 149 139 130
4.25218677520751953 2.01684761047363281 43.4558258056640625 153 137 112
4.25133037567138672 2.01814460754394531 43.4601593017578125 153 137 112
4.04578828811645508 1.48528134822845459 43.4631843566894531 153 131 115
4.06650686264038086 2.15021085739135742 43.4696388244628906 174 166 155
6.07881402969360352 1.98535537719726562 43.1676101684570312 191 218 228
4.41560649871826172 2.18799448013305664 43.4313240051269531 175 161 148
6.05179119110107422 1.92559778690338135 43.1793594360351562 158 188 214
4.08054351806640625 2.26767516136169434 43.5007171630859375 177 169 158
4.82055568695068359 2.19660091400146484 43.3897895812988281 163 152 136
4.36071014404296875 2.22130417823791504 43.44488525390625 154 139 113
5.17590951919555664 1.94478893280029297 43.2827186584472656 144 129 106
4.13551044464111328 1.55978226661682129 43.4456939697265625 144 131 114
5.14435291290283203 2.72462010383605957 43.3265647888183594 170 159 136
4.78778982162475586 2.38983702659606934 43.3741722106933594 170 161 144
5.15669679641723633 2.44585609436035156 43.3277778625488281 163 155 142
5.99625015258789062 2.09028792381286621 43.180938720703125 115 135 155
4.8639979362487793 2.94747781753540039 43.3923912048339844 153 137 112
5.46478176116943359 2.52610492706298828 43.2688560485839844 159 148 134
6.5134429931640625 2.61448192596435547 43.0809707641601562 127 113 84
4.35732650756835938 2.82920145988464355 43.4602470397949219 154 139 110
5.11041498184204102 1.28695082664489746 43.3233909606933594 137 125 109
5.59316062927246094 1.07295107841491699 43.0430831909179688 81 71 69
6.80409908294677734 2.66742968559265137 43.0229301452636719 152 140 126
4.16670608520507812 2.60055088996887207 43.4816207885742188 174 167 151
6.73235368728637695 2.93091154098510742 43.0142440795898438 150 142 123
4.42935085296630859 1.51493072509765625 43.3907279968261719 159 153 139
4.16670608520507812 2.60055088996887207 43.4816207885742188 174 167 151
5.4743194580078125 2.68035626411437988 43.2827339172363281 147 130 102
5.60139083862304688 1.36747884750366211 43.1696815490722656 101 94 86
4.27721834182739258 2.23001694679260254 43.4740257263183594 168 155 138
5.24858283996582031 2.57538509368896484 43.3350181579589844 147 130 114
7.03263092041015625 1.59683477878570557 43.069915771484375 147 132 113
5.7764124870300293 2.80910706520080566 43.2255401611328125 156 148 135
5.85930204391479492 1.25019407272338867 42.9567985534667969 33 24 22
5.34304094314575195 1.2319263219833374 43.3358688354492188 118 102 77
4.87386178970336914 1.26322102546691895 43.3443603515625 134 111 93
5.7126622200012207 1.22549200057983398 43.0569725036621094 148 172 206
5.14002084732055664 1.47634410858154297 43.3217010498046875 148 136 124
5.50720691680908203 1.45295631885528564 43.2368850708007812 137 125 109
6.06243610382080078 1.39181733131408691 43.1006355285644531 189 194 210
4.19467639923095703 1.58859193325042725 43.44769287109375 163 154 142
4.31959962844848633 1.66201508045196533 43.4342803955078125 145 133 117
5.29223918914794922 1.66236197948455811 43.2874298095703125 133 118 97
7.06333732604980469 1.8712533712387085 43.0166893005371094 145 137 123
4.41844320297241211 2.01170206069946289 43.4369697570800781 168 157 141
4.47968721389770508 2.082733154296875 43.4349555969238281 151 139 117
5.8753657341003418 2.33339548110961914 43.2008094787597656 128 104 75
5.51275777816772461 2.37370109558105469 43.2714157104492188 142 126 101
6.0495758056640625 1.94771146774291992 43.2304649353027344 142 173 191
5.97241020202636719 2.48146247863769531 43.1930122375488281 147 133 108
4.02572822570800781 2.4711005687713623 43.5005149841308594 175 167 156
5.61152172088623047 1.11031508445739746 43.1109428405761719 55 55 64
4.71660375595092773 2.48611688613891602 43.42401123046875 167 157 145
5.66514301300048828 2.72873735427856445 43.2474098205566406 158 150 131
4.86796760559082031 2.57036137580871582 43.3682212829589844 155 136 112
4.01838159561157227 2.71419358253479004 43.5071258544921875 177 168 159
4.24821186065673828 1.3312455415725708 43.4218406677246094 141 125 99
6.39694118499755859 2.79057598114013672 43.0941734313964844 133 121 97
5.58558845520019531 1.38989865779876709 43.2449226379394531 119 102 76
5.77387905120849609 1.9095536470413208 43.2363471984863281 142 135 119
4.16064548492431641 1.35946917533874512 43.4410858154296875 163 153 144
5.08886957168579102 2.13266277313232422 43.3503456115722656 154 146 133
4.57041597366333008 2.14653873443603516 43.4370460510253906 168 159 147
4.07796525955200195 1.56202280521392822 43.4713172912597656 165 158 142
6.37492561340332031 2.49187731742858887 43.1055335998535156 157 185 199
5.94069051742553711 2.12432336807250977 43.1754341125488281 223 246 236
4.58629655838012695 1.72186791896820068 43.4014968872070312 162 155 143
6.07443666458129883 1.3952251672744751 43.0715293884277344 213 210 216
5.156402587890625 1.08495640754699707 43.2243003845214844 171 189 191
6.68642616271972656 1.29211008548736572 42.9666366577148438 145 133 120
5.91191434860229492 1.31244313716888428 42.9748344421386719 59 80 101
5.86276435852050781 2.08809018135070801 43.2030105590820312 141 173 196
4.65160846710205078 2.18431591987609863 43.4115524291992188 150 137 120
5.41058969497680664 1.09952783584594727 43.1422309875488281 160 190 224
5.58338832855224609 1.32824409008026123 43.1691436767578125 188 220 241
6.36067008972167969 2.5718986988067627 43.1012382507324219 106 107 101
6.12377071380615234 1.94846880435943604 43.1578903198242188 190 214 228
5.8686676025390625 1.23941600322723389 43.0634994506835938 72 60 47
6.04054880142211914 1.89433276653289795 43.1715469360351562 222 245 255
6.48775672912597656 2.26020717620849609 43.0970115661621094 135 151 184
6.28945779800415039 2.55062222480773926 43.1119651794433594 98 99 103
6.05388927459716797 1.85071122646331787 43.1700553894042969 74 75 70
5.94361209869384766 2.12534904479980469 43.1902313232421875 238 253 253
6.30128049850463867 1.64599871635437012 43.1307449340820312 144 131 114
5.78805780410766602 1.25838696956634521 43.0701026916503906 127 153 180
5.96283721923828125 1.58970999717712402 43.1119499206542969 60 51 36
6.83457374572753906 2.00454449653625488 43.054412841796875 154 144 131
6.53425264358520508 2.39953184127807617 43.0791168212890625 95 102 112
5.4291534423828125 2.45406198501586914 43.28863525390625 161 149 133
6.52940559387207031 2.31581830978393555 43.0806922912597656 146 174 194
6.5074005126953125 1.88494193553924561 43.1002006530761719 145 135 124
6.29850387573242188 2.53697037696838379 43.1136550903320312 146 169 185
3.84152960777282715 2.35332465171813965 43.5043373107910156 171 162 147
5.45670509338378906 1.96956110000610352 43.2684288024902344 163 155 142
4.80195140838623047 2.73760867118835449 43.3759765625 174 163 143
6.7357487678527832 1.10243415832519531 42.8847923278808594 96 88 79
4.16461086273193359 1.08375680446624756 43.4450721740722656 163 154 144
4.72030496597290039 1.9978712797164917 43.40576171875 170 155 136
4.16712427139282227 1.08494770526885986 43.4558677673339844 163 154 144
4.67951631546020508 1.28340721130371094 43.46795654296875 149 137 121
5.29891443252563477 2.41764354705810547 43.2925987243652344 164 151 134
5.18875265121459961 2.61323714256286621 43.335601806640625 163 155 144
6.34590387344360352 2.4122314453125 43.1122169494628906 128 147 165
4.70723438262939453 1.33754110336303711 43.3552894592285156 135 117 95
6.35922479629516602 2.48199963569641113 43.1210212707519531 221 252 255
7.06589412689208984 2.00174856185913086 43.0294532775878906 148 135 118
6.47299003601074219 2.04134082794189453 43.1094131469726562 136 127 112
6.14976119995117188 1.94377028942108154 43.1586723327636719 119 140 154
5.09959650039672852 2.47493648529052734 43.3417892456054688 150 129 110
5.86845779418945312 2.60570406913757324 43.2349128723144531 157 141 125
6.47668600082397461 2.42887282371520996 43.1012382507324219 165 187 186
6.91436433792114258 2.7030494213104248 42.9977912902832031 150 141 124
5.50744152069091797 1.45212888717651367 43.2332878112792969 137 124 108
5.84163522720336914 2.09828639030456543 43.2069511413574219 84 89 92
5.17516899108886719 1.94394350051879883 43.326141357421875 143 131 107
4.63892316818237305 2.26282238960266113 43.4079818725585938 151 136 115
6.09715509414672852 2.87446689605712891 43.1589736938476562 158 147 131
4.97264862060546875 2.44212245941162109 43.3240776062011719 146 125 98
6.48046207427978516 2.44161701202392578 43.0909690856933594 208 222 217
5.95495176315307617 1.73331558704376221 43.1078376770019531 136 115 98
5.11294126510620117 1.28759253025054932 43.3389320373535156 137 125 109
5.90167140960693359 2.13048815727233887 43.1647300720214844 97 123 154
5.76956462860107422 1.18385815620422363 43.1044692993164062 63 50 49
6.26616573333740234 1.39944159984588623 43.1302146911621094 146 140 124
5.97615480422973633 1.57438325881958008 43.0971336364746094 69 79 79
6.42463016510009766 2.32856941223144531 43.1089859008789062 134 154 178
5.9469904899597168 1.34482860565185547 43.112823486328125 121 144 173
5.59921503067016602 1.35524094104766846 43.1750411987304688 154 180 197
5.9326329231262207 1.56262922286987305 43.1246299743652344 173 174 178
6.05010080337524414 2.02205848693847656 43.1807212829589844 228 252 254
5.74659824371337891 1.18844103813171387 43.0186767578125 6 10 21
6.00598287582397461 2.04134798049926758 43.1714019775390625 138 165 191
6.48462581634521484 2.32210850715637207 43.0895195007324219 205 240 254
5.74405622482299805 1.13185226917266846 43.1247177124023438 67 56 54
6.38702058792114258 1.3296130895614624 43.1248970031738281 152 139 122
5.69297552108764648 1.13155674934387207 43.0457382202148438 71 62 59
6.04588556289672852 2.0024571418762207 43.1718978881835938 131 155 179
6.36530542373657227 2.51419663429260254 43.0907249450683594 152 184 191
6.41283893585205078 2.4549260139465332 43.0970344543457031 123 145 151
6.11906099319458008 1.93045711517333984 43.1620597839355469 114 145 174
5.92888021469116211 1.97248101234436035 43.2076530456542969 68 72 71
5.93461990356445312 2.17761468887329102 43.1754798889160156 147 166 190
3.94910907745361328 2.08182811737060547 43.5466575622558594 173 165 142
6.4438934326171875 2.30519270896911621 43.0982322692871094 130 154 164
5.72569370269775391 2.28444743156433105 43.2150039672851562 154 139 121
6.83456659317016602 2.00480961799621582 43.0499496459960938 153 144 129
4.60953330993652344 2.49302768707275391 43.4068679809570312 172 158 137
4.69412612915039062 2.32632350921630859 43.3910179138183594 167 158 143
5.85924816131591797 1.47591471672058105 43.0977134704589844 179 211 234
6.38858938217163086 2.43067741394042969 43.1064682006835938 217 249 255
6.40296125411987305 1.47783660888671875 43.1312904357910156 147 134 119
6.65480756759643555 2.35656023025512695 43.0691337585449219 140 127 110
4.04602813720703125 1.48461627960205078 43.4729766845703125 151 133 113
5.8445134162902832 2.84008336067199707 43.20361328125 144 126 106
5.72572183609008789 2.11472582817077637 43.2424774169921875 152 143 129
4.47954320907592773 2.08204483985900879 43.4316787719726562 152 137 118
6.31009912490844727 1.37205171585083008 43.1279754638671875 152 141 134
3.79134035110473633 1.97851598262786865 43.5442047119140625 169 157 135
5.78649282455444336 1.21894097328186035 43.0735130310058594 59 64 75
5.87147808074951172 1.30176424980163574 43.0194511413574219 108 129 160
5.8938288688659668 1.53380489349365234 43.1239891052246094 248 254 255
5.981903076171875 2.69297647476196289 43.1813888549804688 159 150 135
6.29621076583862305 2.48316812515258789 43.1162300109863281 199 221 218
5.89051008224487305 1.54103195667266846 43.1524429321289062 85 86 73
6.01359081268310547 1.34073412418365479 43.1107711791992188 89 84 83
6.42110204696655273 2.49048900604248047 43.097808837890625 245 255 241
6.23859739303588867 1.53982400894165039 43.1468963623046875 147 131 115
5.29781818389892578 2.15848064422607422 43.3013191223144531 158 146 130
4.24204349517822266 1.42259585857391357 43.4311447143554688 161 148 131
4.752685546875 2.84859561920166016 43.417724609375 173 164 149
6.65274858474731445 2.35669183731079102 43.064971923828125 145 130 111
6.03202915191650391 1.94799971580505371 43.1769218444824219 232 255 255
6.30467939376831055 2.49270486831665039 43.0803184509277344 185 213 224
4.20659685134887695 1.93018102645874023 43.4598922729492188 168 156 140
5.92481708526611328 2.05991268157958984 43.1901397705078125 175 204 222
5.66550874710083008 1.12083899974822998 43.1057548522949219 64 56 49
5.68809652328491211 1.18739330768585205 43.082733154296875 59 78 105
6.71950054168701172 1.08595848083496094 43.0557899475097656 232 255 255
5.97428369522094727 1.60427284240722656 43.2228012084960938 116 104 81
6.05616474151611328 1.9613415002822876 43.1725502014160156 201 233 246
4.9146575927734375 2.55450820922851562 43.3780136108398438 175 159 143
6.04114770889282227 1.99173283576965332 43.1710891723632812 201 234 249
5.87108564376831055 2.11128997802734375 43.1987113952636719 154 166 178
4.08188676834106445 1.16598784923553467 43.4561119079589844 160 152 141
5.94282197952270508 2.13834238052368164 43.1515083312988281 130 148 160
6.63811302185058594 1.58478975296020508 43.0936317443847656 150 138 124
5.79815340042114258 1.19169676303863525 45.3203582763671875 37 54 78
5.41960525512695312 1.10230958461761475 43.2082939147949219 157 189 225
5.70772886276245117 1.18883347511291504 43.0967979431152344 30 45 71
4.52930307388305664 2.25413274765014648 43.4177284240722656 172 161 143
5.80377197265625 1.40591263771057129 43.142669677734375 196 230 255
6.02399492263793945 1.51668775081634521 43.0920295715332031 228 225 232
6.8507237434387207 1.57181084156036377 43.0253562927246094 147 140 124
6.06519031524658203 1.88411283493041992 43.1761703491210938 166 199 206
4.02751016616821289 1.8543318510055542 43.4738044738769531 171 162 147
6.00811481475830078 1.95412254333496094 43.1771926879882812 222 248 255
6.08996725082397461 2.00104165077209473 43.1657524108886719 127 149 170
5.89563894271850586 2.12223911285400391 43.2003288269042969 166 186 199
6.42841005325317383 2.62635159492492676 43.06793212890625 146 137 122
6.38451814651489258 2.45644593238830566 43.0965309143066406 208 232 234
6.29873180389404297 2.52410578727722168 43.1092262268066406 137 165 175
5.49505424499511719 1.07696926593780518 43.0704116821289062 113 138 168
5.63597774505615234 1.108420729637146 43.2368431091308594 24 20 26
6.11444759368896484 1.3973158597946167 43.19854736328125 95 86 71
5.44824981689453125 1.634971022605896 43.2691574096679688 146 133 116
6.10922861099243164 1.86024940013885498 43.1662826538085938 180 200 219
6.05413961410522461 1.91723251342773438 43.1572456359863281 189 217 229
6.96136188507080078 2.00018572807312012 43.0083656311035156 150 137 121
6.12254810333251953 1.95683372020721436 43.1197586059570312 115 133 145
5.7534642219543457 2.18179202079772949 43.224151611328125 151 138 121
5.91579580307006836 2.17042851448059082 43.1954345703125 100 106 114
6.34003210067749023 2.57200717926025391 43.1056747436523438 228 240 237
6.36322307586669922 2.38148307800292969 43.1020698547363281 132 157 177
5.59755468368530273 1.12782585620880127 43.1015968322753906 101 118 152
6.12169265747070312 1.85202383995056152 43.1772613525390625 80 84 85
6.06843376159667969 2.00154876708984375 43.1710624694824219 228 246 252
5.90298748016357422 2.1307530403137207 43.1950492858886719 86 112 145
6.37554645538330078 2.39848470687866211 43.1138725280761719 169 188 201
5.70909500122070312 1.10239434242248535 44.5434074401855469 62 56 49
5.85992336273193359 1.28043615818023682 43.1276741027832031 52 66 87
6.36594104766845703 1.34369194507598877 43.1617851257324219 147 133 118
6.05054998397827148 1.44819557666778564 43.1042251586914062 96 108 129
6.07674264907836914 2.01737141609191895 43.1748428344726562 131 154 172
6.02568578720092773 2.04749059677124023 43.1799774169921875 240 255 255
5.94924688339233398 2.05908870697021484 43.1938591003417969 153 187 207
6.48471260070800781 2.32191681861877441 43.0922966003417969 205 240 254
5.95983314514160156 2.13158202171325684 43.1938705444335938 126 146 155
6.54048013687133789 2.2925713062286377 43.0800819396972656 234 254 255
6.36906576156616211 2.43399667739868164 43.0967864990234375 152 182 192
6.73934745788574219 1.07432901859283447 43.021026611328125 100 116 149
5.66248464584350586 1.06821727752685547 43.1969146728515625 83 66 54
5.92770624160766602 2.01757955551147461 43.1206245422363281 154 182 190
5.93367624282836914 2.15140414237976074 43.160614013671875 123 142 157
6.45755910873413086 2.39064526557922363 43.0757865905761719 234 255 255
6.34252262115478516 2.51088809967041016 43.1099929809570312 175 205 228
6.41360092163085938 2.33152461051940918 43.1048698425292969 135 156 176
6.68493270874023438 1.12142610549926758 43.0144920349121094 84 84 72
6.73818063735961914 1.13644754886627197 43.0555534362792969 74 74 68
6.57266712188720703 2.35995674133300781 43.0675926208496094 96 101 105
6.10396671295166016 1.9239501953125 43.1185379028320312 163 196 212
6.50264644622802734 2.40301060676574707 43.0784072875976562 241 255 249
6.31777238845825195 2.4362330436706543 43.1264724731445312 133 154 176
6.33128881454467773 2.48698019981384277 43.1105270385742188 139 169 189
4.26907444000244141 1.7527540922164917 43.4411392211914062 147 130 108
6.41700172424316406 2.51929616928100586 43.0859260559082031 116 110 110
5.45720481872558594 1.77334773540496826 43.2852401733398438 152 139 123
6.27136993408203125 2.57200288772583008 43.1411018371582031 134 118 93
5.70773887634277344 1.77626371383666992 43.2279243469238281 144 131 114
5.70773887634277344 1.77626371383666992 43.2279243469238281 144 131 114
5.62209987640380859 1.85977303981781006 43.2178840637207031 149 141 128
3.82787418365478516 1.50094044208526611 43.4789848327636719 170 168 155
5.25416898727416992 2.06534528732299805 43.3225822448730469 153 142 127
5.06525087356567383 2.70741558074951172 43.3459243774414062 168 152 133
5.61445522308349609 2.39004850387573242 43.2646598815917969 162 147 128
4.83007287979125977 2.5335390567779541 43.3842582702636719 173 160 143
6.84401226043701172 1.67080855369567871 43.0418624877929688 150 138 124
5.913055419921875 2.81176424026489258 43.2330894470214844 162 149 132
6.46246767044067383 1.29857802391052246 43.1528778076171875 144 137 121
4.9631199836730957 1.55392730236053467 43.342071533203125 159 146 129
6.96164703369140625 1.99766921997070312 43.0164527893066406 150 137 120
6.30277681350708008 1.64500176906585693 43.1335945129394531 143 131 117
4.43690872192382812 1.70503377914428711 43.4273567199707031 159 152 135
4.50434732437133789 1.8330996036529541 43.4127006530761719 142 123 101
4.97050666809082031 1.77103960514068604 43.3365211486816406 164 156 145
4.97240877151489258 1.77360987663269043 43.3642654418945312 164 156 145
4.18774509429931641 2.00242280960083008 43.4959945678710938 179 168 153
4.34357595443725586 2.13061237335205078 43.4467124938964844 150 135 112
5.06835460662841797 2.14395475387573242 43.3509597778320312 167 158 143
5.1051177978515625 2.23122406005859375 43.3387489318847656 163 154 136
6.35605144500732422 2.38532066345214844 43.0924568176269531 132 157 177
5.56726789474487305 2.37011981010437012 43.2706642150878906 141 124 96
4.86768293380737305 2.57104182243347168 43.3650016784667969 155 136 112
5.98536968231201172 1.5640263557434082 43.1159515380859375 98 107 114
5.96484518051147461 2.59798860549926758 43.1975669860839844 156 148 129
4.08188676834106445 1.16598784923553467 43.4561119079589844 160 152 141
6.97111272811889648 1.43805992603302002 43.009185791015625 158 145 129
5.98540735244750977 2.07871270179748535 43.1875267028808594 213 232 239
5.2914738655090332 1.58640944957733154 43.3044090270996094 149 137 123
6.06126165390014648 1.89013469219207764 43.1670722961425781 166 193 198
4.08016347885131836 1.56415724754333496 43.4896163940429688 165 158 142
5.22308921813964844 1.99339950084686279 43.3108901977539062 168 156 139
4.94291543960571289 2.11894845962524414 43.3724174499511719 163 154 137
4.20519876480102539 2.35408639907836914 43.4853782653808594 172 160 146
6.58929967880249023 2.31719803810119629 43.0715522766113281 76 83 83
4.20417356491088867 2.35351252555847168 43.4776802062988281 172 160 146
4.69412612915039062 2.32632350921630859 43.3910179138183594 167 158 143
4.55435562133789062 1.35539734363555908 43.4302177429199219 152 140 124
4.06852102279663086 1.40603196620941162 43.4504280090332031 164 153 135
4.06847620010375977 1.40586757659912109 43.4551429748535156 164 153 135
5.92396116256713867 1.29534924030303955 43.1010055541992188 32 30 40
3.93112540245056152 1.72894906997680664 43.4915084838867188 152 137 115
4.27958345413208008 2.09437799453735352 43.4616012573242188 168 156 140
4.87843894958496094 2.15268087387084961 43.4159278869628906 142 130 106
4.71013450622558594 2.22530841827392578 43.421478271484375 167 156 141
4.71212863922119141 2.22600769996643066 43.4292640686035156 167 156 141
5.74036312103271484 2.41451311111450195 43.2314033508300781 151 142 125
5.98248624801635742 1.82433795928955078 43.1934967041015625 132 116 90
5.74114990234375 2.41507744789123535 43.2433357238769531 151 142 125
6.47318267822265625 2.81438970565795898 43.1216773986816406 151 142 125
6.91552352905273438 1.50192391872406006 43.0195999145507812 132 111 94
6.91861867904663086 1.50288820266723633 43.0348129272460938 132 111 94
5.01858091354370117 2.18058586120605469 43.3692245483398438 145 127 103
4.46533679962158203 3.05238080024719238 43.4149818420410156 175 160 139
4.84825372695922852 2.32168936729431152 43.3854751586914062 151 132 106
6.3034510612487793 2.74688816070556641 43.1223678588867188 150 138 122
4.4819035530090332 1.86441528797149658 43.4306640625 145 128 108
5.76850175857543945 1.21134650707244873 44.4539794921875 118 140 169
6.46511602401733398 2.35121655464172363 43.0920867919921875 151 183 204
5.94512224197387695 2.00969624519348145 43.2048416137695312 228 255 255
6.74980497360229492 2.75358343124389648 43.0618324279785156 152 143 128
5.86356544494628906 1.2867729663848877 43.1041717529296875 60 79 101
5.58914804458618164 1.37205755710601807 43.0107421875 147 137 128
5.95476102828979492 1.96807122230529785 43.1842384338378906 235 251 254
4.47572088241577148 1.34038352966308594 32.8152542114257812 163 186 189
6.34983348846435547 2.57828235626220703 43.0971031188964844 93 94 86
5.99294519424438477 1.97883963584899902 43.1863670349121094 209 239 244
6.50022029876708984 2.4159393310546875 43.0874061584472656 156 176 171
5.62697315216064453 1.13783490657806396 43.1117973327636719 38 51 74
5.8739323616027832 1.29170906543731689 43.1043663024902344 95 114 136
5.84473848342895508 1.48918724060058594 43.1082572937011719 169 202 221
6.12372732162475586 1.91922950744628906 43.1690711975097656 192 224 245
5.94613885879516602 2.10123968124389648 43.1636848449707031 137 164 174
6.51164579391479492 2.39073061943054199 43.08428955078125 145 165 166
6.39714813232421875 2.42639851570129395 43.0967979431152344 139 171 196
6.35199165344238281 2.5142054557800293 43.1131668090820312 183 222 239
6.53908920288085938 2.30743741989135742 43.0885848999023438 133 164 184
5.6285400390625 1.15792596340179443 43.0223846435546875 122 147 177
6.05805444717407227 1.44517397880554199 43.10662841796875 90 99 112
5.74966907501220703 1.45661830902099609 43.1787033081054688 99 94 81
6.04726791381835938 1.95130074024200439 43.1735610961914062 141 172 190
6.02328586578369141 2.02019906044006348 43.1775169372558594 122 154 177
5.21984052658081055 1.14524900913238525 43.1812667846679688 133 116 100
5.60854387283325195 1.37889683246612549 43.1734809875488281 144 133 117
6.03466939926147461 1.96951436996459961 43.123077392578125 202 238 255
6.45899629592895508 2.39013123512268066 43.0948028564453125 238 255 255
6.33854961395263672 2.43810534477233887 43.1071319580078125 182 208 223
6.24432754516601562 1.61366093158721924 43.1426353454589844 142 130 113
6.15162467956542969 2.3987276554107666 43.1788482666015625 179 186 199
5.55816984176635742 2.58450770378112793 43.2748756408691406 160 149 128
4.31475019454956055 1.72109365463256836 43.4366416931152344 169 159 147
5.26669597625732422 2.5231938362121582 43.3056221008300781 167 151 136
4.93459749221801758 2.60701537132263184 43.3127784729003906 148 132 102
6.52252531051635742 1.54678440093994141 43.0786094665527344 148 138 126
4.3815460205078125 1.613838791847229 43.4564132690429688 162 154 141
3.79189634323120117 1.39027607440948486 43.4864463806152344 167 161 149
4.3815460205078125 1.613838791847229 43.4564132690429688 162 154 141
4.02751016616821289 1.8543318510055542 43.4738044738769531 171 162 147
5.25446748733520508 2.69782471656799316 43.2889938354492188 164 156 143
6.49865531921386719 1.71452486515045166 43.1485481262207031 152 139 127
6.49865531921386719 1.71452486515045166 43.1485481262207031 152 139 127
5.85056400299072266 1.2747962474822998 43.1261100769042969 64 80 105
4.65615367889404297 2.40450286865234375 43.4063720703125 153 133 108
5.95084857940673828 1.9830019474029541 43.1948318481445312 244 255 255
5.46926593780517578 1.0401843786239624 43.0994453430175781 44 58 76
5.83425760269165039 1.26244139671325684 43.1246871948242188 32 47 68
5.92038822174072266 1.27834606170654297 43.1405067443847656 61 56 45
6.02796792984008789 1.49770808219909668 43.1049385070800781 99 110 129
5.93512487411499023 1.33459055423736572 43.1181259155273438 100 127 156
6.08202075958251953 1.40520000457763672 43.0671501159667969 184 188 194
6.09973907470703125 1.39087557792663574 43.0801048278808594 96 87 78
6.09035110473632812 1.4324195384979248 43.0891761779785156 54 54 47
6.08023452758789062 1.84064257144927979 43.1620140075683594 161 172 169
5.99484109878540039 1.95091569423675537 43.1674728393554688 168 193 200
6.09190845489501953 1.99196040630340576 43.1696319580078125 218 240 254
6.06703567504882812 1.99750649929046631 43.1187858581542969 220 241 252
6.37277841567993164 2.43396878242492676 43.0172462463378906 167 199 214
6.45159101486206055 2.47166323661804199 43.0894699096679688 166 169 182
6.84209918975830078 2.10417389869689941 43.0381088256835938 151 139 125
5.30274248123168945 1.15307390689849854 44.4708747863769531 183 191 196
6.47133207321166992 2.27743935585021973 43.0813865661621094 142 161 176
5.51532697677612305 1.08217740058898926 43.0804023742675781 97 116 142
5.57666015625 1.11385893821716309 43.0911941528320312 40 58 87
5.70253181457519531 1.17801439762115479 42.8073883056640625 64 67 84
5.77272748947143555 1.22708547115325928 43.0482559204101562 35 51 75
5.93620014190673828 2.08515572547912598 43.1350669860839844 121 158 180
5.53855323791503906 2.61646056175231934 43.2749519348144531 139 128 98
5.85381460189819336 1.28157520294189453 43.1209907531738281 61 73 99
5.89935159683227539 1.54701948165893555 42.9483299255371094 175 182 178
5.91120481491088867 1.55353951454162598 43.0116958618164062 175 182 178
5.96015453338623047 1.58008992671966553 43.1250839233398438 254 249 240
6.07369232177734375 1.8609083890914917 43.1359672546386719 190 209 230
6.15366411209106445 1.89815616607666016 43.163177490234375 161 174 171
5.92649221420288086 1.37557804584503174 43.043212890625 176 206 239
6.12948465347290039 1.90040600299835205 43.1646194458007812 196 218 223
6.48745203018188477 2.35666012763977051 43.0878868103027344 190 220 231
5.78724145889282227 1.19198417663574219 43.0996284484863281 67 59 48
5.89473390579223633 2.05338263511657715 42.7391929626464844 197 220 226
6.04667520523071289 1.95200395584106445 43.170013427734375 153 184 201
6.10552453994750977 1.9862978458404541 43.1583328247070312 118 144 159
5.93429660797119141 2.11411333084106445 43.1944656372070312 147 174 191
5.89897489547729492 2.15977621078491211 43.1933631896972656 112 103 98
6.03185176849365234 1.92146480083465576 43.1688308715820312 183 212 228
6.35431909561157227 2.42138218879699707 43.1133613586425781 182 200 214
6.50661706924438477 2.3988194465637207 43.0802841186523438 238 255 255
5.99560022354125977 1.9833366870880127 43.1914138793945312 175 205 223
5.99561548233032227 1.98345518112182617 43.1900062561035156 175 205 223
6.57774686813354492 2.30523920059204102 43.0677757263183594 84 94 86
6.04067325592041016 1.41290497779846191 42.9624977111816406 92 109 128
6.03993988037109375 1.44504177570343018 43.0536003112792969 93 109 126
6.47090005874633789 2.34067130088806152 43.0915260314941406 149 184 206
6.34989500045776367 1.3203885555267334 43.1297950744628906 123 105 82
4.5348811149597168 1.20270347595214844 43.4479141235351562 155 143 131
5.21221160888671875 2.28157472610473633 43.3182411193847656 151 131 104
3.82166075706481934 2.51967453956604004 43.4780311584472656 178 164 144
6.64140129089355469 1.58192360401153564 43.1121673583984375 154 138 122
6.48122072219848633 2.33501005172729492 43.1017417907714844 148 183 204
5.2488555908203125 2.57554745674133301 43.3367347717285156 144 132 107
4.2719731330871582 2.61682558059692383 43.43853759765625 175 162 146
3.89334726333618164 2.6345975399017334 43.5416069030761719 173 165 154
6.50493621826171875 2.29980850219726562 43.0744438171386719 159 189 213
6.51087236404418945 1.7095339298248291 43.0916938781738281 146 139 123
5.42995548248291016 2.36883831024169922 43.2867202758789062 155 139 123
4.54174280166625977 2.01067900657653809 43.3644790649414062 161 154 138
5.13895177841186523 2.25089120864868164 43.2879486083984375 158 149 132
5.92063522338867188 1.31508028507232666 43.1074943542480469 66 83 107
5.91939592361450195 1.30152630805969238 43.1201858520507812 77 90 113
5.53129959106445312 2.66705131530761719 43.2659225463867188 166 159 143
6.54129409790039062 2.36203789710998535 43.08331298828125 177 200 198
5.67421865463256836 1.40432250499725342 43.170135498046875 194 205 212
6.83865785598754883 2.10291385650634766 43.0179176330566406 150 137 120
5.93301916122436523 1.54241430759429932 43.1268043518066406 147 165 193
4.96268749237060547 1.55607283115386963 43.3419036865234375 157 147 137
5.93881082534790039 1.56110918521881104 43.0971450805664062 86 98 110
5.95424175262451172 1.57734191417694092 43.1213798522949219 252 252 244
4.24795055389404297 1.94206929206848145 43.4520797729492188 173 162 140
5.89718151092529297 2.14902138710021973 43.2054328918457031 135 146 161
6.47182846069335938 2.29096436500549316 43.0994644165039062 213 239 226
6.2876434326171875 2.53121161460876465 43.1219291687011719 159 180 193
5.94999313354492188 1.33414030075073242 43.1042022705078125 128 144 173
6.01529788970947266 1.4867851734161377 42.96343994140625 237 240 249
6.461883544921875 2.29463624954223633 43.1102142333984375 137 162 169
4.42481374740600586 2.86042141914367676 43.4610824584960938 179 168 150
5.81044483184814453 1.25263261795043945 43.1016502380371094 47 67 92
4.99055099487304688 2.09214663505554199 43.3032035827636719 147 127 101
6.0979161262512207 1.84783315658569336 43.1767730712890625 217 238 255
6.13252401351928711 1.87842440605163574 43.1767196655273438 154 171 187
6.02598762512207031 1.90322494506835938 43.18157958984375 230 250 247
4.21578884124755859 2.85758233070373535 43.502685546875 177 168 153
6.09222221374511719 3.06753921508789062 43.1794090270996094 160 153 135
5.62691307067871094 1.38536393642425537 43.1611366271972656 106 101 95
5.92953395843505859 2.01079440116882324 43.1877975463867188 166 189 195
6.41890764236450195 2.35543513298034668 43.10009765625 188 215 231
6.51196622848510742 2.29279828071594238 43.0872459411621094 146 178 199
6.34441852569580078 2.51132965087890625 43.1185836791992188 181 212 239
6.04051446914672852 1.97176218032836914 43.1585006713867188 200 234 252
7.12453222274780273 1.6927262544631958 43.00274658203125 153 143 127
6.63724517822265625 1.58391475677490234 43.0831985473632812 150 137 128
5.78099441528320312 1.81593310832977295 43.2350425720214844 127 109 85
4.82228326797485352 2.63473868370056152 43.3891639709472656 168 157 137
6.46379709243774414 2.3031623363494873 43.1064262390136719 223 243 243
5.72944068908691406 1.2174454927444458 43.0476150512695312 107 127 155
5.55251884460449219 1.096840500831604 43.0984115600585938 46 61 90
5.68826866149902344 1.13424360752105713 43.1094894409179688 70 57 56
5.80584049224853516 1.21968555450439453 43.1076507568359375 19 13 22
4.94334840774536133 2.67411208152770996 43.3848533630371094 167 150 127
5.8013458251953125 1.24206840991973877 43.0837936401367188 41 54 76
5.89620208740234375 1.28638088703155518 43.0592803955078125 62 69 80
5.88272523880004883 1.30199635028839111 43.0787467956542969 110 134 165
5.63645029067993164 1.38074541091918945 43.1601448059082031 176 186 194
6.09707450866699219 2.87415242195129395 43.1517448425292969 158 147 131
6.16649389266967773 1.90045452117919922 43.1690444946289062 92 100 99
5.99407005310058594 1.95768630504608154 43.1839561462402344 192 215 233
5.09842681884765625 1.06131303310394287 43.2138938903808594 101 92 94
6.01272964477539062 1.94337153434753418 43.1822853088378906 170 190 201
6.04340553283691406 1.38725507259368896 43.06610107421875 104 117 142
5.56365346908569336 1.34165167808532715 43.2071113586425781 102 95 79
5.44930505752563477 1.05017054080963135 43.1208610534667969 118 137 167
5.81533718109130859 1.26709306240081787 43.0946273803710938 104 129 157
5.63417482376098633 1.15739071369171143 43.0943946838378906 111 136 166
6.12233114242553711 1.97081494331359863 43.154876708984375 116 137 153
6.08497095108032227 1.99099922180175781 43.1658401489257812 201 221 228
6.36492156982421875 2.49621129035949707 43.12237548828125 166 195 201
6.48295497894287109 2.38021063804626465 43.0972824096679688 146 179 190
5.12935447692871094 1.88552272319793701 43.3254776000976562 163 152 135
5.3389582633972168 2.11096858978271484 43.3050117492675781 137 116 89
5.57083463668823242 1.05732607841491699 43.0118026733398438 82 68 64
6.74994993209838867 1.12389183044433594 43.0352020263671875 77 74 62
5.88610267639160156 2.03394889831542969 43.1716423034667969 171 183 197
6.06195926666259766 1.40438723564147949 43.0931320190429688 76 90 102
5.64849042892456055 1.40402698516845703 42.404510498046875 177 182 184
6.51534652709960938 1.95858609676361084 43.0998153686523438 148 137 127
5.90074968338012695 1.53396284580230713 43.0938301086425781 95 116 137
6.01244974136352539 1.54242110252380371 43.0585594177246094 68 71 64
5.92127370834350586 2.00359821319580078 43.1477279663085938 167 186 193
6.0656437873840332 1.9975200891494751 43.1666450500488281 199 227 234
6.07883310317993164 2.00997471809387207 43.1692085266113281 120 143 158
6.05454921722412109 2.02480292320251465 43.1707420349121094 224 248 251
5.46288204193115234 1.03647363185882568 43.0634269714355469 51 57 82
6.05369186401367188 1.46878266334533691 43.0875396728515625 248 254 254
6.05133056640625 1.44678020477294922 43.0329627990722656 114 122 141
6.02955341339111328 1.47755646705627441 43.0160675048828125 212 217 223
5.90218400955200195 1.54896032810211182 43.0308952331542969 226 234 232
5.98249244689941406 2.0014946460723877 43.1958084106445312 159 188 206
5.99953556060791016 1.57328689098358154 43.1153717041015625 72 75 73
5.9505462646484375 2.12953686714172363 43.1920928955078125 230 249 254
6.54976272583007812 2.36005735397338867 43.0875473022460938 183 201 207
5.62830972671508789 1.37506341934204102 43.1473541259765625 174 193 207
5.80480051040649414 1.49584221839904785 43.0705032348632812 112 106 95
5.81671953201293945 1.49260628223419189 43.0801048278808594 165 176 186
6.43041849136352539 2.46578764915466309 43.1103134155273438 160 180 188
6.09667396545410156 1.87093460559844971 43.1816215515136719 158 186 201
5.9618072509765625 2.00761747360229492 43.198974609375 211 233 246
5.32224798202514648 2.01142382621765137 43.2979469299316406 154 142 120
6.35508823394775391 1.69401180744171143 43.1264724731445312 150 137 122
6.15885162353515625 1.93279397487640381 43.1508026123046875 109 135 150
6.46277141571044922 2.35569024085998535 43.029754638671875 151 182 203
4.24139785766601562 1.42299926280975342 43.4318275451660156 165 150 138
5.71608638763427734 1.6307990550994873 43.3156776428222656 139 125 102
4.92437982559204102 1.69569957256317139 43.366302490234375 143 132 110
5.3484492301940918 2.05182647705078125 43.2928924560546875 140 115 93
5.70696926116943359 1.46438562870025635 43.2758293151855469 122 102 75
6.57914161682128906 2.39417815208435059 43.1299552917480469 124 108 93
6.75223922729492188 2.75826454162597656 43.0986404418945312 149 139 127
6.45915365219116211 2.38970541954040527 43.0974693298339844 236 255 255
5.8032374382019043 1.25126218795776367 43.1240692138671875 107 129 152
5.69886636734008789 1.62472975254058838 43.2314262390136719 114 103 90
4.91843128204345703 2.3474280834197998 43.3404197692871094 171 156 137
5.92126131057739258 1.56608080863952637 43.0715980529785156 85 79 69
4.42654657363891602 1.79492008686065674 33.6139755249023438 122 143 164
6.34714984893798828 2.4787445068359375 43.1116905212402344 139 171 181
5.71341133117675781 1.43007135391235352 43.112335205078125 193 199 199
6.00181961059570312 1.48995435237884521 42.9755401611328125 119 118 132
5.93653011322021484 2.10626411437988281 43.1572608947753906 137 165 179
6.42202329635620117 2.32580685615539551 43.0720481872558594 140 162 172
5.39974308013916016 1.24363040924072266 43.2681808471679688 110 108 99
4.31874275207519531 2.32388424873352051 43.4294052124023438 176 162 149
6.56966924667358398 2.32551741600036621 43.0749282836914062 194 227 236
6.15832233428955078 1.87986099720001221 43.1701545715332031 110 99 86
5.74225330352783203 1.44199442863464355 43.1465644836425781 164 178 188
6.13802099227905273 1.9603121280670166 43.16058349609375 121 142 161
4.29025554656982422 2.75799989700317383 43.4679718017578125 176 159 141
3.84152960777282715 2.35332465171813965 43.5043373107910156 171 162 147
5.87340068817138672 1.27953171730041504 43.0919837951660156 33 49 67
5.95970249176025391 1.31057548522949219 43.119171142578125 111 114 127
6.46960926055908203 2.32537508010864258 43.0902748107910156 152 187 199
6.03191804885864258 1.44457268714904785 43.1366081237792969 136 156 189
6.41992807388305664 2.40962338447570801 43.1330909729003906 170 197 223
6.46639919281005859 2.30423212051391602 43.0803260803222656 210 232 233
6.38526201248168945 2.48486566543579102 43.1036109924316406 101 134 167
5.93994903564453125 1.25440990924835205 43.1493186950683594 75 58 38
6.02087497711181641 1.9001237154006958 43.1196403503417969 218 245 252
5.94326686859130859 2.1236732006072998 43.1759147644042969 206 235 233
5.11792325973510742 1.6183626651763916 43.3174362182617188 154 146 133
4.70994138717651367 2.50898838043212891 43.4894943237304688 168 155 139
6.82869291305541992 2.21004247665405273 43.03826904296875 145 133 119
6.46457719802856445 2.49351739883422852 43.0434684753417969 118 105 73
6.46436357498168945 2.81439805030822754 43.0786895751953125 148 139 122
6.18428754806518555 2.53319525718688965 43.1340980529785156 129 109 84
5.58047008514404297 1.34611237049102783 43.162261962890625 125 135 142
6.14593029022216797 1.88856589794158936 43.1744499206542969 152 169 179
6.11045598983764648 1.92249953746795654 43.1656341552734375 163 190 217
6.0164794921875 2.03956341743469238 43.1862335205078125 139 166 175
6.03508949279785156 2.02017092704772949 43.1777915954589844 134 161 179
6.33288860321044922 2.43460822105407715 43.1049575805664062 184 210 227
5.68858671188354492 1.4121251106262207 43.160797119140625 179 189 195
6.14886569976806641 1.8794475793838501 43.1782035827636719 79 88 95
6.28845882415771484 2.47378635406494141 43.117584228515625 120 142 156
5.67074966430664062 1.41044068336486816 43.1310462951660156 94 96 93
5.96190690994262695 1.99160933494567871 43.19830322265625 175 202 218
6.00320959091186523 1.99949729442596436 43.0986976623535156 171 198 206
6.38312149047851562 2.50168442726135254 43.1022491455078125 184 214 220
6.49021816253662109 2.28107070922851562 43.0899429321289062 237 252 255
5.91329479217529297 1.33700025081634521 43.132781982421875 141 167 202
6.51673126220703125 1.39950728416442871 43.1033821105957031 130 110 91
6.04573249816894531 1.3885338306427002 43.1379966735839844 105 118 135
5.98284101486206055 1.92912960052490234 43.2114753723144531 92 92 87
6.02889823913574219 1.93416273593902588 43.1790122985839844 212 243 255
5.91108131408691406 2.01351308822631836 43.2026557922363281 218 235 244
5.8841552734375 2.06477975845336914 43.1993904113769531 201 221 230
5.95200634002685547 2.08490180969238281 43.1947708129882812 115 145 169
5.99955415725708008 2.07729053497314453 43.1888046264648438 193 219 234
6.35548162460327148 2.46971869468688965 43.1150932312011719 160 186 198
5.89811849594116211 1.32088923454284668 43.1313209533691406 126 149 178
5.91545248031616211 1.32260358333587646 43.1340217590332031 125 146 177
5.88281059265136719 2.13158392906188965 43.1982803344726562 201 209 210
5.90428304672241211 2.12784886360168457 43.2005424499511719 86 108 131
6.43244647979736328 2.31717205047607422 43.0997505187988281 142 159 167
6.36959648132324219 2.56286263465881348 43.101348876953125 78 89 79
6.0664525032043457 1.98650157451629639 43.1746063232421875 133 160 177
6.38408327102661133 2.44309186935424805 43.0994911193847656 166 195 214
6.38470315933227539 2.44459128379821777 43.0912818908691406 166 195 214
6.26384353637695312 2.50163531303405762 43.11981201171875 107 116 133
6.07174062728881836 1.41132903099060059 43.1121292114257812 90 101 115
6.39742422103881836 2.44960880279541016 43.0935745239257812 157 185 196
6.39245271682739258 2.54167580604553223 43.1007728576660156 98 102 104
6.04299354553222656 1.97629296779632568 43.1764373779296875 218 250 255
6.04325723648071289 1.97700738906860352 43.1815071105957031 218 250 255
6.50390720367431641 2.40262532234191895 43.0808258056640625 238 255 251
6.33922958374023438 2.53515172004699707 43.1178970336914062 153 176 184
5.11820888519287109 1.61801373958587646 43.3294258117675781 156 149 133
6.5061335563659668 1.88470816612243652 43.0896873474121094 150 136 122
4.13551044464111328 1.55978226661682129 43.4456939697265625 144 131 114
5.26532459259033203 1.6156003475189209 43.3109512329101562 152 140 124
4.92747974395751953 2.05736231803894043 43.3348159790039062 163 151 134
5.56675291061401367 2.3706355094909668 43.2726516723632812 138 124 97
5.0692896842956543 2.65384554862976074 43.3425102233886719 166 153 129
4.8639979362487793 2.94747781753540039 43.3923912048339844 153 137 112
6.79754209518432617 1.50566351413726807 43.0518989562988281 147 133 120
5.23989725112915039 2.34066462516784668 43.3251380920410156 162 147 126
3.90917038917541504 2.63140964508056641 43.5579910278320312 175 167 154
4.752685546875 2.84859561920166016 43.417724609375 173 164 149
4.89301061630249023 2.9011387825012207 43.3280181884765625 173 160 141
5.67569255828857422 2.91266322135925293 43.2333297729492188 164 151 134
6.51062154769897461 1.70990622043609619 43.0961570739746094 149 139 127
4.23774385452270508 1.83641493320465088 43.4563522338867188 147 132 111
6.78141355514526367 2.53910541534423828 43.0412368774414062 148 136 122
4.99031591415405273 2.72091174125671387 43.3545455932617188 149 128 97
5.01942014694213867 2.8879697322845459 43.3743324279785156 167 155 131
6.40944814682006836 2.89009737968444824 43.0855331420898438 136 121 88
5.28619050979614258 2.99187827110290527 43.3049507141113281 166 155 134
5.43122148513793945 2.95033907890319824 43.2665977478027344 165 157 144
5.45014286041259766 2.82444167137145996 43.2852363586425781 169 161 150
6.60465431213378906 2.81748723983764648 43.0472869873046875 135 118 92
5.88227939605712891 1.41824460029602051 43.1991157531738281 171 204 239
4.27694416046142578 2.09655094146728516 43.4496040344238281 132 122 108
5.58180141448974609 1.36108052730560303 43.034912109375 0 0 0
6.09974431991577148 1.83839833736419678 43.1594047546386719 77 82 86
6.060211181640625 1.95201146602630615 43.1780853271484375 147 175 189
6.36468696594238281 2.4461066722869873 43.0972557067871094 189 210 236
6.398529052734375 2.46589136123657227 43.102691650390625 171 197 212
6.41543817520141602 2.48125410079956055 43.0976943969726562 238 255 248
6.3204646110534668 2.56276869773864746 43.1280136108398438 156 166 176
6.050933837890625 1.90396285057067871 43.1798057556152344 165 193 199
5.92540931701660156 2.03173565864562988 43.1872482299804688 193 222 238
6.05968046188354492 2.02876758575439453 43.1742095947265625 119 138 155
6.08267450332641602 1.42481470108032227 43.1030616760253906 111 119 123
6.33454418182373047 2.42358708381652832 43.1129875183105469 136 157 174
6.40687131881713867 1.31560349464416504 43.1194915771484375 155 142 133
5.55859756469726562 1.33696353435516357 43.2855949401855469 106 104 92
6.06773948669433594 1.99710619449615479 43.248870849609375 196 221 228
6.07171058654785156 1.97744154930114746 43.1757049560546875 140 167 186
5.90670871734619141 2.05800056457519531 43.2110137939453125 161 189 203
