ply
format ascii 1.0
element vertex 268
property float x
property float y
property float z
property uchar red
property uchar green
property uchar blue
end_header
1.02456092834472656 2.62902307510375977 102.749404907226562 125 119 105
2.14819860458374023 2.60967779159545898 103.240592956542969 131 161 190
-0.425725042819976807 2.59439682960510254 102.0322265625 122 113 101
0.236304387450218201 2.59803581237792969 102.336631774902344 146 140 130
-0.585788547992706299 2.49534296989440918 101.835151672363281 156 154 147
-0.471048504114151001 2.59662437438964844 101.983085632324219 157 159 146
1.48458552360534668 2.58038091659545898 102.889839172363281 142 141 133
1.484779953956604 2.58279991149902344 102.947708129882812 142 141 133
-1.04072606563568115 2.42307162284851074 101.525131225585938 160 161 154
0.686897397041320801 2.41639566421508789 102.373252868652344 152 154 151
0.905689775943756104 2.45540165901184082 102.536880493164062 167 168 163
-0.233902797102928162 2.62608218193054199 102.0953369140625 149 142 131
0.763694643974304199 2.61828327178955078 102.5560302734375 155 151 147
-1.21467769145965576 2.48320555686950684 101.467864990234375 155 154 149
0.747084617614746094 2.64400815963745117 102.5938720703125 132 120 104
1.6295773983001709 2.39622902870178223 102.838592529296875 140 139 134
0.193448260426521301 2.71363401412963867 102.362541198730469 145 137 126
1.09663999080657959 2.72438836097717285 102.776130676269531 143 142 140
0.766398787498474121 2.43952488899230957 102.446975708007812 147 143 140
0.976724505424499512 2.51128220558166504 102.605300903320312 149 151 150
-0.426429092884063721 2.57238078117370605 101.997932434082031 109 104 101
-1.12566924095153809 2.42622566223144531 101.485153198242188 135 128 118
1.92243814468383789 2.56624484062194824 103.145736694335938 129 118 112
-0.338113605976104736 2.55955314636230469 101.979377746582031 152 144 131
-0.338485777378082275 2.55958366394042969 101.981094360351562 152 144 131
3.0469660758972168 2.93939113616943359 103.859657287597656 137 139 138
0.890818595886230469 2.59633731842041016 102.590217590332031 151 154 148
-0.996805191040039062 2.60360574722290039 101.684036254882812 157 165 158
0.369350314140319824 2.61964321136474609 102.392929077148438 129 116 97
0.590143501758575439 2.35516977310180664 102.318504333496094 127 112 91
-0.793812692165374756 2.37706685066223145 101.590263366699219 158 160 157
-0.793812692165374756 2.37706685066223145 101.590263366699219 158 160 157
0.159854188561439514 2.43336319923400879 102.217315673828125 143 134 129
0.998406529426574707 2.38415098190307617 102.558273315429688 133 143 147
1.10605740547180176 2.4570004940032959 102.617851257324219 143 148 141
1.37730562686920166 2.37327790260314941 102.721023559570312 133 139 139
0.00335083319805562496 2.910308837890625 102.403602600097656 147 141 129
-1.11120915412902832 2.38387084007263184 101.4879150390625 139 142 145
-0.747904419898986816 2.47364592552185059 101.696067810058594 165 166 170
1.71550500392913818 2.49911189079284668 102.988578796386719 141 142 137
-0.242631673812866211 2.50899910926818848 101.987571716308594 159 152 146
0.0866870656609535217 2.5872805118560791 102.216743469238281 128 112 97
0.310991168022155762 2.5840599536895752 102.366081237792969 149 143 131
1.2773277759552002 2.5825197696685791 102.822044372558594 145 146 140
1.07749629020690918 2.28226613998413086 102.508575439453125 137 137 135
0.983167767524719238 2.61245608329772949 102.708763122558594 122 120 105
1.59929215908050537 2.65473651885986328 103.02423095703125 114 101 76
2.97779226303100586 2.58140349388122559 103.653900146484375 127 128 120
-0.467627495527267456 2.48138570785522461 101.943031311035156 125 116 101
0.771425545215606689 2.48531460762023926 102.467582702636719 129 117 101
-0.211438208818435669 2.56306052207946777 102.064002990722656 131 111 85
-0.212558954954147339 2.56462478637695312 102.092582702636719 131 111 85
1.46279382705688477 2.6441340446472168 102.958702087402344 140 140 138
-0.909499287605285645 2.44851517677307129 101.589668273925781 136 125 107
1.77339637279510498 2.39023017883300781 102.927032470703125 113 106 98
0.76140362024307251 2.61803984642028809 102.579238891601562 143 148 144
-0.910110533237457275 2.44864606857299805 101.601509094238281 136 125 107
-0.000137787865241989493 2.52896952629089355 102.118812561035156 139 131 120
0.115199804306030273 2.30631542205810547 102.037879943847656 141 142 147
1.13498890399932861 2.53958368301391602 102.71392822265625 127 118 103
1.13500690460205078 2.53957819938659668 102.711898803710938 127 118 103
2.05334925651550293 2.61690092086791992 103.247344970703125 102 76 57
1.37916028499603271 2.37269306182861328 102.71917724609375 133 139 139
0.488656431436538696 2.4994657039642334 102.362663269042969 115 114 109
-0.26073002815246582 2.97690534591674805 102.334724426269531 152 153 140
0.48900565505027771 2.49930620193481445 102.365554809570312 115 114 109
-0.436265379190444946 2.38260889053344727 101.775772094726562 147 149 146
2.50186872482299805 3.02949786186218262 103.748001098632812 142 133 124
1.88702678680419922 2.30430936813354492 102.93292236328125 131 133 130
-0.639792680740356445 2.94048738479614258 102.083404541015625 133 125 112
-0.572634994983673096 2.3502042293548584 101.729904174804688 143 140 132
-0.519316673278808594 2.35290956497192383 101.689613342285156 116 115 110
0.270132094621658325 3.12325572967529297 102.668113708496094 146 149 143
1.59415054321289062 2.44777917861938477 102.890312194824219 131 133 129
0.0676264986395835876 2.47213530540466309 102.123748779296875 142 141 136
1.16512620449066162 2.93735694885253906 103.034996032714844 134 133 128
1.53880047798156738 2.47155356407165527 102.8804931640625 133 134 129
0.593631267547607422 2.72685813903808594 102.637481689453125 120 113 97
0.918036878108978271 2.87073469161987305 102.857452392578125 124 114 95
0.593631267547607422 2.72685813903808594 102.637481689453125 120 113 97
1.50167250633239746 2.74093890190124512 103.035415649414062 123 124 116
0.661499261856079102 3.03382158279418945 102.809005737304688 142 143 146
-0.335251003503799438 2.7402350902557373 102.115036010742188 119 114 110
0.372001081705093384 2.77302217483520508 102.502952575683594 144 138 126
-0.258839815855026245 2.8224027156829834 102.196014404296875 129 115 102
0.372001081705093384 2.77302217483520508 102.502952575683594 144 138 126
0.498995542526245117 2.75647163391113281 102.537681579589844 121 111 99
0.342683970928192139 3.15467715263366699 102.752410888671875 129 117 101
1.02327334880828857 2.74192070960998535 102.801872253417969 137 134 130
0.815633535385131836 2.87053704261779785 102.767303466796875 142 144 130
-0.158261537551879883 3.03720426559448242 102.429283142089844 146 148 145
0.88152778148651123 2.83345222473144531 102.799674987792969 138 140 127
-0.0760722607374191284 2.88900423049926758 102.335334777832031 143 135 131
3.21096110343933105 2.34112167358398438 103.794174194335938 136 134 137
-0.0760722607374191284 2.88900423049926758 102.335334777832031 143 135 131
2.17279601097106934 3.15303468704223633 103.661766052246094 135 131 128
0.107801347970962524 2.89622688293457031 102.444435119628906 151 151 141
-0.126264259219169617 2.91804790496826172 102.334396362304688 148 139 138
2.61294007301330566 2.4105987548828125 102.886543273925781 20 27 38
0.139847785234451294 2.94328975677490234 102.468742370605469 140 134 122
2.47476935386657715 2.95967650413513184 103.673530578613281 127 118 109
1.14146280288696289 3.09620261192321777 103.092781066894531 145 150 143
1.28526437282562256 3.05340337753295898 103.1533203125 137 142 137
1.13958323001861572 3.09621262550354004 103.0869140625 145 150 143
1.30395388603210449 3.16552567481994629 103.250556945800781 133 135 122
2.64492416381835938 2.31454896926879883 102.882072448730469 24 42 67
-0.312940031290054321 3.19051957130432129 102.422073364257812 154 151 147
0.0617313645780086517 2.27225780487060547 102.011894226074219 135 136 138
-0.098936818540096283 2.83256030082702637 102.324562072753906 143 140 133
1.2359013557434082 2.33342504501342773 102.647895812988281 139 139 139
1.32493078708648682 2.32283282279968262 102.658531188964844 119 107 95
0.640084445476531982 2.98553729057312012 102.789833068847656 123 121 108
1.32399404048919678 2.32256388664245605 102.656005859375 119 107 95
1.38434767723083496 2.32889723777770996 102.695732116699219 139 133 133
0.0288934353739023209 3.08045673370361328 102.543807983398438 123 114 99
1.17581319808959961 2.4073483943939209 102.625930786132812 139 141 140
1.73825585842132568 2.44743132591247559 102.978195190429688 131 133 133
0.831441998481750488 2.74341225624084473 102.722084045410156 144 134 133
0.0856033340096473694 2.51247620582580566 102.172393798828125 144 141 136
0.240932181477546692 2.53991508483886719 102.257247924804688 133 134 129
0.880106449127197266 2.29053282737731934 102.416328430175781 145 137 135
1.06494414806365967 2.59821224212646484 102.749595642089844 141 141 139
1.08891928195953369 2.6635291576385498 102.829414367675781 121 114 106
-0.316531628370285034 3.04141521453857422 102.319602966308594 139 124 105
-0.503565371036529541 2.67536234855651855 101.968399047851562 152 143 141
0.0628240108489990234 2.69010329246520996 102.300567626953125 144 141 136
1.57716488838195801 2.57904720306396484 102.935981750488281 132 132 132
1.18313419818878174 2.74830985069274902 102.870353698730469 138 140 139
0.0943116247653961182 2.78200697898864746 102.344741821289062 146 138 130
0.851111054420471191 2.42735767364501953 102.496330261230469 120 120 110
0.226709574460983276 2.80739521980285645 102.457038879394531 141 131 129
0.349578231573104858 2.90787506103515625 102.537437438964844 146 141 138
0.0618327856063842773 2.2722022533416748 101.9945068359375 135 136 138
0.490582734346389771 2.88418769836425781 102.619194030761719 122 113 98
0.735263168811798096 2.88078069686889648 102.760063171386719 147 148 150
2.7001194953918457 2.35008358955383301 103.269989013671875 97 84 68
0.736976563930511475 2.88106036186218262 102.757308959960938 147 148 150
0.810093283653259277 2.90199971199035645 102.803802490234375 128 118 107
-0.491248965263366699 3.13692879676818848 102.300567626953125 150 146 137
-0.729705750942230225 2.9355928897857666 102.044212341308594 150 151 137
-0.264748424291610718 2.91530919075012207 102.260124206542969 147 136 133
2.73060417175292969 2.96843218803405762 103.721443176269531 132 128 123
0.552480578422546387 2.95593786239624023 102.711021423339844 140 141 134
-0.584153532981872559 2.97934365272521973 102.145751953125 149 139 138
-0.448065221309661865 2.31109070777893066 101.761024475097656 143 143 143
-0.584322869777679443 2.97950196266174316 102.145172119140625 149 139 138
0.534038245677947998 3.00196743011474609 102.727951049804688 149 143 140
1.59874379634857178 3.07000303268432617 103.316818237304688 137 137 137
0.745962738990783691 2.9802703857421875 102.838424682617188 141 143 138
1.31199419498443604 2.98338174819946289 103.124900817871094 138 134 123
1.6491694450378418 2.68311119079589844 103.031661987304688 124 118 120
1.31259655952453613 2.98339390754699707 103.123031616210938 138 134 123
1.65436983108520508 3.03128170967102051 103.306640625 129 127 117
0.250274240970611572 2.3733217716217041 102.261573791503906 142 140 144
0.151256769895553589 3.04820775985717773 102.571395874023438 143 142 137
-0.702940464019775391 3.04212474822998047 102.110366821289062 152 153 148
0.459188848733901978 2.43481945991516113 102.364730834960938 141 143 142
1.45201420783996582 3.08435177803039551 103.2598876953125 135 136 131
1.45026826858520508 3.08479928970336914 103.259330749511719 135 136 131
2.87839412689208984 2.67051458358764648 103.647308349609375 115 105 93
1.53596436977386475 3.08449649810791016 103.281036376953125 114 108 93
1.7223360538482666 3.14161014556884766 103.431571960449219 134 130 127
2.5738525390625 2.57770276069641113 103.435707092285156 108 94 75
0.607912719249725342 3.1658318042755127 102.9012451171875 142 134 123
0.894541084766387939 3.1653139591217041 103.029525756835938 140 139 137
0.875855684280395508 2.66391086578369141 102.730628967285156 125 116 106
1.36149978637695312 3.24223756790161133 103.321975708007812 140 139 137
1.16111373901367188 2.31281042098999023 102.571121215820312 120 114 102
1.37789380550384521 2.60206723213195801 102.835601806640625 125 120 113
1.15903568267822266 2.31205940246582031 102.562583923339844 120 114 102
0.689786136150360107 2.33072829246520996 102.340110778808594 138 137 132
0.328001528978347778 2.53601908683776855 102.334640502929688 121 113 102
0.0665197372436523438 2.35679459571838379 102.060997009277344 142 142 144
-0.513165533542633057 2.404083251953125 101.7645263671875 111 105 94
2.66543674468994141 2.52965331077575684 103.469795227050781 109 102 94
-0.508291900157928467 2.40372157096862793 101.757713317871094 111 105 94
1.15736484527587891 2.56855273246765137 102.726066589355469 112 108 97
2.27338480949401855 3.09212040901184082 103.658843994140625 132 126 127
-0.400907784700393677 2.65329384803771973 102.078956604003906 118 109 102
0.145113348960876465 2.67592287063598633 102.324836730957031 122 113 99
3.01520442962646484 2.4284670352935791 103.538864135742188 106 96 84
0.999138295650482178 2.66550803184509277 102.754714965820312 147 149 147
0.756143629550933838 2.72933745384216309 102.671127319335938 122 115 99
2.24813055992126465 2.37374711036682129 102.876426696777344 100 89 71
1.00789928436279297 2.71069717407226562 102.771400451660156 119 112 98
1.28562521934509277 2.7104942798614502 102.925102233886719 118 110 99
1.3674241304397583 2.71509814262390137 102.966598510742188 132 132 129
-0.411072134971618652 2.74366664886474609 102.093719482421875 148 148 140
-0.0489778667688369751 2.72913455963134766 102.238548278808594 143 143 141
1.3968818187713623 2.7534174919128418 103.004203796386719 111 102 87
1.3968818187713623 2.7534174919128418 103.004203796386719 111 102 87
0.190521150827407837 2.77730011940002441 102.422821044921875 124 109 93
1.38042247295379639 2.79588770866394043 103.026458740234375 127 128 122
-0.354896277189254761 2.82669281959533691 102.148933410644531 146 141 135
0.675782203674316406 2.8412632942199707 102.701751708984375 142 143 142
0.678005754947662354 2.84146285057067871 102.708038330078125 142 143 142
0.791088581085205078 2.84233379364013672 102.765823364257812 124 117 99
0.547752320766448975 2.90290045738220215 102.671028137207031 142 139 134
-0.530974149703979492 2.93213105201721191 102.140357971191406 150 141 142
1.04521346092224121 2.96893882751464844 102.978958129882812 116 107 88
1.60834932327270508 2.97335386276245117 103.261360168457031 131 135 132
1.60838949680328369 2.97309136390686035 103.272056579589844 131 135 132
2.52457427978515625 2.99751734733581543 103.691642761230469 128 127 125
2.23109316825866699 3.03088641166687012 103.608558654785156 112 105 89
0.276445478200912476 3.01050925254821777 102.62823486328125 126 119 103
0.276445478200912476 3.01050925254821777 102.62823486328125 126 119 103
0.564838171005249023 3.04405570030212402 102.765945434570312 127 118 103
0.564838171005249023 3.04405570030212402 102.765945434570312 127 118 103
-0.545489370822906494 3.06006145477294922 102.230255126953125 146 147 142
0.527822554111480713 3.149749755859375 102.803276062011719 118 105 86
1.05556762218475342 3.1309969425201416 103.059738159179688 142 143 135
1.12345623970031738 3.19800329208374023 103.177154541015625 137 138 124
0.483641773462295532 2.35064268112182617 102.255081176757812 137 137 137
0.252399295568466187 2.37451910972595215 102.171707153320312 142 140 144
1.50926005840301514 2.39655828475952148 102.816001892089844 121 111 102
-0.588055014610290527 2.43544983863830566 101.73175048828125 144 149 145
1.10690891742706299 2.45466279983520508 102.610321044921875 136 145 140
1.20669460296630859 2.66465854644775391 102.804450988769531 139 145 143
-0.135353520512580872 2.72281193733215332 102.119682312011719 0 0 0
1.34413063526153564 2.85460638999938965 103.058341979980469 130 128 129
-0.64001309871673584 2.94043350219726562 102.086158752441406 133 125 112
0.0726408064365386963 2.93094658851623535 102.4483642578125 126 110 95
1.16512620449066162 2.93735694885253906 103.034996032714844 134 133 128
-0.0184224117547273636 2.9837031364440918 102.444648742675781 151 150 147
0.664303958415985107 3.03399395942687988 102.807388305664062 142 143 146
-0.29133075475692749 3.08704209327697754 102.281501770019531 133 120 104
-0.361602604389190674 3.14761805534362793 102.367996215820312 128 117 99
1.56881821155548096 2.29526543617248535 102.771492004394531 132 133 127
0.3298206627368927 2.48036336898803711 102.275146484375 141 137 134
0.330019742250442505 2.48008942604064941 102.274185180664062 141 137 134
0.560108959674835205 2.54628777503967285 102.421096801757812 139 140 137
-0.570298850536346436 2.82911276817321777 102.074630737304688 0 0 0
1.31687366962432861 2.90762567520141602 103.07421875 114 106 87
-0.137372285127639771 2.96791362762451172 102.3948974609375 115 106 91
0.640530943870544434 2.98600482940673828 102.784271240234375 123 121 108
1.19952702522277832 2.99105405807495117 103.066741943359375 116 109 93
0.935504734516143799 3.08735466003417969 102.9945068359375 121 114 98
0.346156775951385498 2.69884991645812988 102.423759460449219 119 107 91
-0.0968129783868789673 2.8315126895904541 102.320907592773438 143 140 133
1.44224441051483154 3.02875161170959473 103.235595703125 114 102 90
-0.163137719035148621 3.10902881622314453 102.482162475585938 147 149 148
2.85369873046875 2.69476151466369629 103.683769226074219 130 129 127
1.52078628540039062 2.35570240020751953 102.735816955566406 132 135 128
2.98105788230895996 2.68590641021728516 103.68597412109375 114 107 91
0.831911742687225342 2.74328398704528809 102.723320007324219 144 134 133
1.07339417934417725 2.28485298156738281 102.459037780761719 137 137 135
1.23472309112548828 2.33432459831237793 102.67626953125 139 139 139
0.851316750049591064 2.42749810218811035 102.500030517578125 120 120 110
0.342035681009292603 2.45686483383178711 102.220359802246094 141 142 143
1.00308716297149658 2.58769893646240234 102.685020446777344 121 116 103
0.674931585788726807 2.6535642147064209 102.542007446289062 143 144 139
2.4311220645904541 2.87076568603515625 103.572669982910156 116 105 104
3.17044997215270996 2.39037013053894043 103.617584228515625 132 135 140
0.327952176332473755 2.5362095832824707 102.32904052734375 121 113 102
1.47310090065002441 2.60588884353637695 102.848136901855469 133 137 137
2.94225049018859863 2.65959358215332031 103.632865905761719 140 141 144
0.99966353178024292 2.45882177352905273 102.614608764648438 122 119 108
1.02791202068328857 2.77003169059753418 102.777549743652344 136 133 124
2.996551513671875 2.52119326591491699 103.601799011230469 130 130 130
0.703867077827453613 2.68295145034790039 102.579681396484375 139 135 134
2.90737628936767578 2.82593202590942383 103.658470153808594 132 134 131
2.70729637145996094 2.30677056312561035 102.782943725585938 106 103 96
2.62537670135498047 2.32739377021789551 102.732398986816406 48 72 93
2.23196911811828613 2.47152042388916016 102.677696228027344 143 184 221
0.853653967380523682 2.92459893226623535 102.9049072265625 143 144 138
3.05092763900756836 2.88373255729675293 103.83685302734375 140 140 138
3.28968048095703125 2.63505005836486816 103.938934326171875 132 133 128
2.96242380142211914 2.90033197402954102 103.838348388671875 117 109 96
