ply
format ascii 1.0
element vertex 663
property float x
property float y
property float z
property uchar red
property uchar green
property uchar blue
end_header
4.47477436065673828 -1.36510467529296875 93.5646438598632812 139 124 103
5.38817453384399414 -1.34990596771240234 93.446533203125 157 157 151
5.01317071914672852 -0.236755192279815674 93.4494400024414062 164 165 160
4.50268077850341797 -1.24748790264129639 93.4959487915039062 162 153 144
4.86176204681396484 -1.10433077812194824 93.5163955688476562 160 156 145
2.83359742164611816 0.139008522033691406 93.5517730712890625 159 150 145
7.46094512939453125 -1.23086714744567871 92.9199981689453125 90 102 83
6.44882822036743164 -1.24482095241546631 93.3750152587890625 150 144 132
7.88602161407470703 -1.57210278511047363 93.32281494140625 145 135 125
3.29625439643859863 -0.877330183982849121 92.6164321899414062 52 50 56
3.3976140022277832 -0.943418443202972412 92.8714218139648438 62 56 54
6.48964977264404297 -2.68481326103210449 92.9290847778320312 137 153 169
8.96832942962646484 -1.74101841449737549 93.2078094482421875 144 134 132
3.77024149894714355 -0.904060184955596924 93.5537033081054688 157 148 143
1.74916982650756836 -1.69884574413299561 92.7192153930664062 107 135 173
4.16635608673095703 0.0370301045477390289 93.5949325561523438 164 163 159
6.48854160308837891 -2.46623015403747559 92.9714736938476562 75 103 127
6.67169094085693359 -3.30423235893249512 93.27154541015625 148 149 144
5.21378946304321289 0.325045853853225708 93.5386199951171875 161 160 155
2.33145546913146973 -1.63596117496490479 92.7610931396484375 167 201 236
6.44362640380859375 -2.40452671051025391 92.7852706909179688 201 216 235
4.90587949752807617 -3.08374190330505371 93.4945220947265625 157 159 158
6.18879365921020508 -3.52691650390625 93.2715301513671875 151 145 145
6.40565299987792969 -2.46106576919555664 92.9060821533203125 131 150 164
4.08524179458618164 -2.29812049865722656 93.5247573852539062 142 133 118
7.66082191467285156 -1.47427046298980713 92.7428054809570312 90 110 135
7.08632135391235352 -1.52928745746612549 93.2191543579101562 18 18 23
3.33359527587890625 -1.48008668422698975 93.5360946655273438 132 115 97
8.45099544525146484 -2.7157282829284668 93.25537109375 148 148 143
7.29878854751586914 -1.35133588314056396 92.97314453125 205 231 244
5.47327423095703125 -1.01847732067108154 93.5362319946289062 158 158 150
6.56322288513183594 -2.19041204452514648 92.9435806274414062 34 37 46
1.87974882125854492 -1.58905684947967529 92.6015396118164062 114 142 181
4.92529869079589844 -0.831642806529998779 93.5598068237304688 162 163 155
6.39464426040649414 0.0380664877593517303 93.2330780029296875 141 133 120
8.48306751251220703 -3.05182838439941406 93.5627899169921875 130 122 109
3.54317235946655273 -0.532817065715789795 93.4798736572265625 131 118 101
2.02542877197265625 -1.33472013473510742 92.8416900634765625 58 55 48
6.18410825729370117 -0.305652320384979248 93.4508743286132812 159 157 144
3.25386548042297363 -0.770812690258026123 92.6310195922851562 61 55 50
3.82358360290527344 -0.0491093285381793976 93.6568603515625 161 156 150
3.89569282531738281 0.223112344741821289 93.5385055541992188 168 161 144
3.82366251945495605 -0.0503988973796367645 93.6801300048828125 161 156 150
7.60752487182617188 -2.90716147422790527 93.2879562377929688 143 142 133
8.91706371307373047 0.0934606641530990601 93.256561279296875 121 112 97
6.11029815673828125 0.415595442056655884 93.58465576171875 144 131 115
6.53254604339599609 -2.7380673885345459 92.9215316772460938 76 82 80
3.80204081535339355 -3.160064697265625 93.4239044189453125 166 166 163
4.72237348556518555 -3.17702698707580566 93.4753189086914062 139 131 120
5.16891384124755859 -3.06097698211669922 93.407684326171875 157 162 155
2.01560044288635254 -2.14753937721252441 92.6864395141601562 118 135 153
4.59094810485839844 -1.98845887184143066 93.4901351928710938 141 132 116
4.79574823379516602 -2.26193475723266602 93.731475830078125 147 138 129
8.22797489166259766 -1.95286810398101807 93.2657241821289062 143 141 129
5.40236949920654297 -1.56020069122314453 93.4891738891601562 139 132 116
1.98001062870025635 -3.45869159698486328 93.5976409912109375 152 151 147
6.39709329605102539 -2.72362732887268066 93.05322265625 139 129 117
6.12473773956298828 -1.59638285636901855 93.3811874389648438 130 117 100
7.65292072296142578 -0.499505341053009033 93.3985137939453125 151 152 146
4.69307470321655273 -1.47346782684326172 93.482025146484375 150 150 138
2.78641891479492188 -1.43399655818939209 92.6924057006835938 161 186 202
5.17503976821899414 -1.17053830623626709 93.4500198364257812 155 153 154
7.28611850738525391 -0.702836155891418457 93.2609100341796875 143 144 139
5.13763952255249023 -0.880390942096710205 93.5235443115234375 142 134 121
3.52123761177062988 0.171758189797401428 93.5716018676757812 146 138 127
1.53870868682861328 -1.7839583158493042 92.79693603515625 28 32 49
3.50216150283813477 -0.79320526123046875 93.4963531494140625 143 131 118
4.61088991165161133 -0.680995702743530273 93.5391082763671875 160 163 156
3.53299927711486816 -2.78601431846618652 93.4788894653320312 153 157 158
4.84424781799316406 -0.600630819797515869 93.6035842895507812 143 144 127
3.1040196418762207 -1.12761425971984863 92.523345947265625 135 153 165
6.40350532531738281 -0.577733457088470459 93.393280029296875 152 155 148
9.0483856201171875 -0.710681796073913574 93.148529052734375 143 140 135
3.40343880653381348 -0.942993700504302979 92.9492111206054688 62 57 53
6.40350532531738281 -0.577733457088470459 93.393280029296875 152 155 148
1.48947572708129883 -1.07073438167572021 93.6981277465820312 151 139 139
3.02646946907043457 -0.595984518527984619 92.7222824096679688 233 242 243
6.23554039001464844 -0.479285955429077148 93.5638275146484375 140 129 111
7.78066015243530273 -0.966352581977844238 93.2546844482421875 150 147 140
8.80413436889648438 -1.30347037315368652 93.2515792846679688 146 140 133
4.23371267318725586 -0.4094390869140625 93.54388427734375 150 137 121
7.40392065048217773 -1.82335841655731201 92.8447113037109375 164 181 201
5.92105245590209961 -0.306479752063751221 93.3424758911132812 155 155 147
8.07275295257568359 -0.558391034603118896 93.343780517578125 136 125 107
7.1121973991394043 -3.68620419502258301 93.23809814453125 154 144 143
4.41959762573242188 -2.40450525283813477 93.4375076293945312 135 125 111
3.79009914398193359 -2.63485097885131836 93.2311553955078125 157 161 160
6.74683856964111328 -3.37608003616333008 93.1681137084960938 158 154 153
5.87940835952758789 -2.45768141746520996 93.3619613647460938 152 148 145
6.46819829940795898 -2.57803535461425781 92.8711318969726562 118 144 177
2.62776517868041992 -1.4952540397644043 92.5721664428710938 142 177 205
4.24347305297851562 -2.25468754768371582 93.4739303588867188 164 164 152
5.81854677200317383 -2.22219419479370117 93.3650131225585938 134 126 107
7.07426309585571289 -1.63618791103363037 92.9976806640625 89 103 127
1.85093283653259277 -2.01630544662475586 92.6175155639648438 145 179 216
6.38936424255371094 -2.11659097671508789 93.134185791015625 124 109 90
4.10154581069946289 -1.96028828620910645 93.5503311157226562 134 127 109
5.62483072280883789 -2.43567609786987305 93.3852767944335938 157 149 138
6.63203573226928711 -2.92101216316223145 93.1378021240234375 127 118 104
3.75690793991088867 -2.2306208610534668 93.4394149780273438 153 154 148
4.91268253326416016 -1.4239877462387085 93.4691238403320312 141 130 112
4.05756855010986328 -1.12967097759246826 93.5101699829101562 158 148 146
3.94499039649963379 -1.78181707859039307 93.4840774536132812 150 152 141
1.89866983890533447 -1.46534848213195801 92.7137832641601562 19 29 41
4.8826756477355957 -0.113936007022857666 93.6007232666015625 147 145 132
3.04339957237243652 -0.539351165294647217 92.501007080078125 135 116 104
2.56924724578857422 -2.12136316299438477 93.4740829467773438 140 124 105
6.11675310134887695 -0.882337331771850586 93.466461181640625 154 153 149
3.26857566833496094 -1.0128556489944458 92.3936996459960938 79 96 113
6.88571405410766602 -3.21948742866516113 93.3010025024414062 157 159 158
7.69859647750854492 -1.42442500591278076 92.9058456420898438 91 101 111
3.99332928657531738 0.100261934101581573 93.6685028076171875 144 135 120
5.22032594680786133 0.00586385698989033699 93.6124343872070312 163 164 158
3.17850327491760254 -0.817938029766082764 92.24603271484375 98 109 120
7.29672384262084961 -1.29078149795532227 92.8702163696289062 240 255 255
4.17487716674804688 -2.67040467262268066 93.5411453247070312 137 131 119
5.06184625625610352 -1.67652320861816406 93.412017822265625 151 148 143
2.38718223571777344 0.118188008666038513 93.6989669799804688 152 142 132
2.96376633644104004 -0.621651291847229004 92.6536636352539062 242 255 255
3.65984106063842773 -1.16095829010009766 93.4941940307617188 138 128 116
3.1517634391784668 -1.33465886116027832 93.0601425170898438 79 69 59
3.24630236625671387 -0.659130573272705078 93.38043212890625 76 66 65
3.05344629287719727 -1.23070502281188965 92.5524749755859375 224 243 247
6.32891082763671875 -2.55911016464233398 92.930938720703125 65 65 76
6.41565036773681641 -2.58801841735839844 92.8914566040039062 68 88 100
2.31613588333129883 -1.14697837829589844 92.5615386962890625 150 179 204
6.42593526840209961 -3.45810317993164062 93.2790145874023438 121 114 107
2.83934378623962402 -0.738276541233062744 92.71875 88 106 134
7.41529941558837891 -1.26975703239440918 92.8403854370117188 83 101 105
6.5181126594543457 -2.36637520790100098 93.09210205078125 90 108 129
8.19875431060791016 -1.47697281837463379 93.2434310913085938 142 140 127
2.26330113410949707 -1.90945887565612793 92.5995941162109375 100 117 132
2.81778621673583984 -0.719860672950744629 92.7331771850585938 43 47 53
2.96798157691955566 -1.3084416389465332 92.5841140747070312 49 54 51
7.33232879638671875 -1.35335409641265869 92.8054275512695312 96 123 150
7.55977869033813477 -1.30140924453735352 92.8961639404296875 71 74 75
2.45791435241699219 -0.97793954610824585 92.6451492309570312 25 32 42
2.53644990921020508 -1.67725479602813721 92.4242706298828125 123 148 164
3.66660094261169434 -0.278832584619522095 93.63079833984375 155 147 144
6.5126490592956543 -2.10255765914916992 93.4697036743164062 123 100 82
7.19687891006469727 -1.04017364978790283 93.187347412109375 143 139 130
9.26692867279052734 -0.156130209565162659 92.2609481811523438 151 155 156
3.36397576332092285 -2.77388429641723633 93.538970947265625 139 131 128
7.27342367172241211 -1.37840962409973145 92.9654083251953125 177 204 210
3.05175518989562988 -0.160569071769714355 93.6207046508789062 167 162 154
3.55305624008178711 0.0630062147974967957 93.6133499145507812 166 167 162
6.44981050491333008 -3.56733298301696777 93.2179794311523438 138 127 123
3.32665419578552246 -0.919707000255584717 92.6390228271484375 38 30 9
6.46717548370361328 -2.63315320014953613 92.8070831298828125 89 112 138
6.49537420272827148 0.526263535022735596 93.4176406860351562 158 157 152
6.89501428604125977 -2.87682080268859863 93.2763290405273438 143 134 125
6.97488212585449219 -3.3883216381072998 93.2443313598632812 153 154 152
2.97044086456298828 -1.33910036087036133 92.6038742065429688 82 85 83
3.75891304016113281 -1.69322443008422852 93.5869979858398438 154 145 136
2.056732177734375 -1.31072831153869629 92.7137069702148438 31 14 1
6.86398458480834961 -1.24058055877685547 93.417022705078125 147 139 130
3.03170251846313477 -1.24998068809509277 92.5771102905273438 190 196 201
6.8944706916809082 -0.882906019687652588 93.3429946899414062 150 146 143
6.8404083251953125 -1.94361817836761475 92.8855361938476562 104 119 139
3.65731239318847656 0.27162092924118042 93.6554489135742188 164 161 154
7.0846405029296875 -0.878120779991149902 93.3606109619140625 130 123 105
6.73182058334350586 -2.79339098930358887 93.0750808715820312 84 95 99
1.90686297416687012 -1.53258621692657471 92.6760101318359375 66 94 133
2.88208913803100586 -2.38114428520202637 93.5858230590820312 147 138 134
7.38701391220092773 -1.24531722068786621 92.904541015625 144 156 170
6.38513755798339844 -2.6230471134185791 92.5818328857421875 90 97 107
4.52831268310546875 -3.72842717170715332 93.3866424560546875 84 80 73
3.87331509590148926 -1.97222733497619629 93.6966171264648438 151 148 141
2.88828825950622559 -1.04735040664672852 92.6454696655273438 157 191 226
2.68461465835571289 -1.50625741481781006 92.5530624389648438 175 206 226
2.61550021171569824 -0.40587124228477478 93.6560134887695312 132 116 100
2.39654994010925293 -0.106435373425483704 93.62469482421875 165 159 145
2.05108237266540527 -1.29491603374481201 92.8765945434570312 126 110 84
2.9195096492767334 -0.218011930584907532 93.5697860717773438 137 122 101
9.07818222045898438 -3.32429981231689453 93.13739013671875 151 150 145
2.46292471885681152 -0.974315822124481201 92.7134323120117188 33 39 55
2.91727709770202637 -0.216007024049758911 93.4692535400390625 137 122 101
6.49200248718261719 -2.37501668930053711 92.9903411865234375 36 49 63
2.7838752269744873 0.287668228149414062 93.3469696044921875 144 136 119
2.55395865440368652 -2.74039006233215332 93.528411865234375 156 147 148
7.26912879943847656 -2.54087543487548828 93.2180938720703125 144 139 135
7.17192554473876953 -2.30621600151062012 92.9933700561523438 122 110 94
3.56162238121032715 0.407478392124176025 93.492919921875 147 132 119
1.97449445724487305 -1.1268082857131958 93.572967529296875 137 125 111
6.4977564811706543 0.521320939064025879 93.4170150756835938 158 157 152
3.24157810211181641 -2.52720785140991211 93.6925811767578125 156 153 150
6.80063343048095703 -1.55594301223754883 93.312713623046875 127 114 97
6.85679244995117188 -0.599332630634307861 93.3581161499023438 150 151 145
6.88712692260742188 -0.260627061128616333 93.4451980590820312 133 124 108
4.25681304931640625 0.425788074731826782 93.5376205444335938 142 132 122
4.54243564605712891 -0.48468482494354248 93.45819091796875 149 143 129
8.03851318359375 -1.19924545288085938 93.268585205078125 126 110 94
3.06831598281860352 -0.632478833198547363 92.6946563720703125 236 249 250
7.2309727668762207 -1.41280090808868408 92.91607666015625 244 255 255
6.77911281585693359 -2.02230048179626465 92.9416122436523438 104 122 143
8.91586875915527344 -2.99799537658691406 93.7269363403320312 152 151 149
6.75022363662719727 -2.98507499694824219 93.3078155517578125 138 134 125
7.13006877899169922 0.0190684106200933456 93.358428955078125 155 158 149
4.70775699615478516 -2.4484710693359375 93.5967636108398438 156 158 153
3.36269474029541016 -2.77560997009277344 93.5624542236328125 140 131 122
9.38293838500976562 0.0578744783997535706 93.224609375 143 149 145
6.32837247848510742 -0.41749158501625061 93.7373275756835938 134 125 108
2.27600407600402832 -1.14232742786407471 92.55743408203125 32 31 39
4.42244672775268555 0.242543235421180725 93.5390625 160 163 156
6.45427799224853516 -2.46944093704223633 93.0440521240234375 60 82 96
3.16979646682739258 -1.13072526454925537 92.5856399536132812 193 199 195
2.19371795654296875 -1.20713353157043457 92.7021102905273438 32 41 55
2.55322551727294922 -0.902438104152679443 92.69879150390625 35 36 41
7.05601167678833008 -1.67316353321075439 92.9150466918945312 72 89 116
2.3658454418182373 -1.16126072406768799 92.3680877685546875 78 111 146
7.17517614364624023 -3.22397446632385254 93.2003860473632812 132 123 114
5.97464656829833984 -0.934297502040863037 93.50177001953125 158 156 144
2.90114712715148926 -3.22345280647277832 93.7421112060546875 158 154 153
7.19536638259887695 -1.38055336475372314 92.8102874755859375 66 81 86
3.02758455276489258 -0.615461766719818115 92.6776885986328125 46 65 72
6.30769634246826172 -0.55497974157333374 93.53167724609375 156 154 142
7.21523046493530273 -2.08895158767700195 92.773590087890625 157 173 182
3.16991066932678223 0.469782412052154541 93.5447540283203125 170 163 158
6.65742206573486328 -2.1687617301940918 93.0103302001953125 50 68 90
3.03452897071838379 -1.21874415874481201 92.5858993530273438 67 85 98
3.08156108856201172 -1.20685660839080811 92.4941024780273438 218 229 237
7.51714897155761719 -3.67575168609619141 92.7125244140625 162 152 150
7.37765932083129883 -1.30676138401031494 92.9006423950195312 100 124 133
7.36308097839355469 -1.24160075187683105 92.8808975219726562 122 149 156
4.0375676155090332 -0.283544182777404785 93.4880599975585938 167 162 160
3.08318018913269043 -0.761186301708221436 92.6809310913085938 127 155 179
3.10643577575683594 -0.678909599781036377 92.6732559204101562 189 195 218
2.76680350303649902 -0.297419220209121704 93.6371078491210938 167 159 148
2.91048073768615723 -1.35552453994750977 92.5606155395507812 111 126 133
4.21789932250976562 -2.23287320137023926 93.5133819580078125 168 167 164
3.25741124153137207 -0.869557201862335205 92.5679855346679688 246 255 255
7.90765666961669922 -0.544968962669372559 93.2918167114257812 150 152 137
7.43213844299316406 -1.24438512325286865 92.776031494140625 243 255 242
3.29717469215393066 -0.91121363639831543 92.6214523315429688 227 237 231
6.91057395935058594 -1.84436154365539551 92.9013671875 87 108 129
2.68848872184753418 -0.798559308052062988 92.5935516357421875 36 34 46
6.46770620346069336 -3.18934464454650879 93.3007049560546875 143 132 127
3.16270256042480469 -1.41104590892791748 93.2226028442382812 67 56 50
8.62283992767333984 -0.257957339286804199 92.6031951904296875 145 145 130
2.56928324699401855 -1.47005224227905273 92.4947738647460938 190 226 255
3.38694620132446289 -3.51267242431640625 93.5757217407226562 163 154 152
8.47822284698486328 -2.04581618309020996 93.261627197265625 148 138 128
1.88193154335021973 -2.68526816368103027 93.558380126953125 141 125 112
5.27550458908081055 0.522807717323303223 93.578826904296875 165 157 146
2.75894045829772949 -0.771680176258087158 92.71124267578125 31 33 48
2.9296422004699707 -3.42479133605957031 93.4149627685546875 159 154 156
4.34991264343261719 -1.90808987617492676 93.4703903198242188 141 134 118
5.14040374755859375 -3.35390281677246094 93.4042205810546875 159 161 159
4.20540428161621094 -2.41837811470031738 93.5450668334960938 155 154 149
4.96609163284301758 -2.25966238975524902 93.4876861572265625 159 156 151
6.91674375534057617 -1.58885061740875244 93.3592910766601562 112 99 72
3.36796855926513672 -2.92914724349975586 93.52862548828125 153 152 147
2.80607461929321289 -0.253474116325378418 93.707244873046875 157 148 133
6.63001585006713867 -3.56694221496582031 93.229461669921875 142 144 143
3.79214763641357422 -0.735677242279052734 93.5498428344726562 155 144 135
7.80721855163574219 -3.81686639785766602 93.135467529296875 150 150 150
6.03665781021118164 -3.27459621429443359 93.4126739501953125 147 144 145
6.78337860107421875 -3.47809720039367676 93.335968017578125 137 125 113
7.07648372650146484 -3.13288164138793945 93.1159439086914062 148 147 145
5.53717803955078125 -1.53030633926391602 93.3801803588867188 160 158 146
8.22035884857177734 -2.84279489517211914 93.1877670288085938 151 154 147
8.99154472351074219 -2.47805333137512207 93.5717544555664062 143 140 134
3.78919076919555664 0.168681025505065918 93.360137939453125 161 164 156
8.66666221618652344 -1.57314586639404297 93.196533203125 146 146 134
8.18900775909423828 -0.709445655345916748 93.250946044921875 147 141 137
5.80601835250854492 -0.427857428789138794 93.4518051147460938 143 130 113
7.12991809844970703 0.0189542975276708603 93.3591690063476562 153 154 149
5.08428287506103516 -2.51211309432983398 93.3354949951171875 161 159 146
8.33102512359619141 0.268586784601211548 93.28192138671875 145 147 142
3.6571042537689209 0.265236794948577881 93.482696533203125 158 157 152
4.07731771469116211 -0.702408552169799805 93.57476806640625 158 155 148
6.2118988037109375 -3.74425888061523438 93.33172607421875 136 123 108
6.7251286506652832 -2.75674128532409668 92.9463272094726562 146 152 164
6.93908166885375977 -3.75428295135498047 93.256011962890625 133 121 109
6.07635831832885742 -1.93055379390716553 93.3916702270507812 149 143 131
3.71015787124633789 -0.148096680641174316 93.6183013916015625 148 141 135
8.43355941772460938 -3.73055434226989746 93.1329879760742188 147 145 145
5.99497270584106445 0.501951873302459717 93.5365524291992188 155 155 143
7.07176303863525391 -1.07481205463409424 93.5782928466796875 130 121 106
3.48961424827575684 -3.37287425994873047 93.3420562744140625 142 131 127
6.31187629699707031 -1.69006907939910889 93.17742919921875 141 132 123
3.38952732086181641 -3.20570111274719238 93.5569229125976562 155 157 154
4.80151891708374023 -3.35380387306213379 93.4447479248046875 156 158 155
8.630035400390625 -3.22779560089111328 93.0177688598632812 146 148 145
7.74167871475219727 -3.10579204559326172 93.4388046264648438 151 152 144
7.70613527297973633 -2.68123650550842285 93.3101806640625 122 113 98
3.74476504325866699 0.344120323657989502 93.43048095703125 145 136 129
4.59048128128051758 -1.98899102210998535 93.5026397705078125 143 131 115
2.48224997520446777 -0.756179749965667725 93.5006942749023438 138 123 104
2.6104576587677002 -1.35588490962982178 92.5868911743164062 192 235 255
8.33276653289794922 -1.04140961170196533 93.084930419921875 146 145 141
2.15736246109008789 -3.23418426513671875 93.7055435180664062 149 146 136
8.0759124755859375 -0.559763729572296143 93.365753173828125 132 120 104
5.84158945083618164 -2.01666855812072754 93.4139480590820312 155 153 141
7.43610858917236328 0.387341737747192383 93.5247650146484375 153 151 138
6.07303190231323242 -0.790875852108001709 93.3830947875976562 157 157 149
7.39343070983886719 -2.05654311180114746 93.1317367553710938 121 108 77
3.0890498161315918 -0.619352102279663086 91.7628402709960938 78 71 65
6.27438879013061523 -1.71073079109191895 93.2301483154296875 145 137 124
5.8320307731628418 -0.618184149265289307 93.5339431762695312 153 152 147
8.80413436889648438 -1.30347037315368652 93.2515792846679688 146 140 133
8.75409793853759766 -0.0457220971584320068 93.1204605102539062 136 132 124
8.86995792388916016 0.279935151338577271 93.1994705200195312 133 132 127
8.03849887847900391 -1.20094573497772217 93.2712478637695312 126 113 94
3.0110318660736084 -3.60952448844909668 93.6244049072265625 137 125 111
3.89303088188171387 -1.07115507125854492 93.364227294921875 153 145 134
4.42965316772460938 -0.378111094236373901 93.5342025756835938 164 163 157
2.21372199058532715 -1.89016199111938477 92.6107330322265625 174 200 223
6.38698482513427734 -2.46810293197631836 92.9027633666992188 197 218 229
2.21283316612243652 -1.93777203559875488 92.6561660766601562 164 183 197
6.4891057014465332 -2.38952398300170898 92.9209976196289062 175 192 208
7.14016485214233398 -3.50138401985168457 93.46923828125 128 118 108
2.96323776245117188 -0.621465623378753662 92.6506423950195312 242 255 255
2.04834389686584473 -1.41500473022460938 92.5950851440429688 74 104 138
5.55359697341918945 -0.21088545024394989 93.5006103515625 157 156 144
2.31724739074707031 -1.25594663619995117 92.7116241455078125 149 181 219
7.45418548583984375 -1.25084495544433594 92.9837799072265625 243 255 242
2.81322956085205078 -3.55946707725524902 93.5565643310546875 158 154 155
2.5582890510559082 -3.1511070728302002 93.694427490234375 156 152 151
2.6062464714050293 -1.35323238372802734 92.4993438720703125 191 229 255
2.19356346130371094 -1.20743262767791748 92.702972412109375 27 36 53
5.14733409881591797 -3.34467840194702148 93.3974761962890625 157 157 155
2.92533040046691895 0.297018438577651978 93.681396484375 166 167 161
2.09635114669799805 -1.29905986785888672 92.7043380737304688 23 20 26
6.58735227584838867 -2.87701272964477539 93.23577880859375 135 127 114
4.27558374404907227 -2.94657301902770996 93.4942092895507812 157 162 158
6.89441013336181641 -2.87815666198730469 93.2480316162109375 139 132 122
4.49895524978637695 -0.57519829273223877 93.577392578125 146 136 126
2.02355575561523438 -1.73596107959747314 92.6915512084960938 133 176 211
2.82019686698913574 -2.86758995056152344 93.6204833984375 161 151 150
7.55945062637329102 -1.32677173614501953 92.6208648681640625 154 170 175
6.58097648620605469 -2.75193929672241211 92.7705459594726562 149 161 161
3.00432753562927246 -1.22360718250274658 92.7465438842773438 133 150 168
6.54714155197143555 -1.4738457202911377 93.3740921020507812 125 110 91
7.53413486480712891 -1.30333590507507324 92.8807296752929688 195 208 206
6.84019851684570312 -3.29033374786376953 93.5603408813476562 145 145 143
6.18375968933105469 -3.52707457542419434 93.222381591796875 154 154 149
7.32488918304443359 -1.2305905818939209 92.8299713134765625 151 163 171
4.75982141494750977 -0.380979239940643311 93.53167724609375 162 165 159
1.66875135898590088 -0.297855675220489502 93.60467529296875 168 160 158
2.01656150817871094 -1.39112496376037598 92.6438446044921875 109 131 160
3.06516671180725098 0.127984613180160522 93.6650619506835938 142 125 107
4.05249738693237305 -1.21727645397186279 93.5407791137695312 160 155 147
7.34239768981933594 -1.28388190269470215 92.9051589965820312 122 139 149
7.74544048309326172 -1.42335009574890137 92.8259735107421875 91 92 83
3.27630448341369629 -1.0542072057723999 92.507781982421875 69 73 64
7.62590169906616211 -1.36209535598754883 92.89776611328125 205 220 219
3.30405330657958984 -0.736917078495025635 93.2400588989257812 85 73 61
3.1467745304107666 -0.629460692405700684 92.9387664794921875 78 71 65
2.72217416763305664 -0.850217938423156738 92.7260208129882812 72 97 127
1.91463363170623779 0.258399546146392822 93.7619781494140625 170 170 157
1.81747686862945557 -1.62979757785797119 92.750457763671875 120 153 194
3.1878657341003418 0.472972571849822998 93.7884292602539062 171 167 157
6.35087776184082031 -2.53994083404541016 92.960235595703125 240 251 255
3.77633357048034668 -3.08899092674255371 93.4994888305664062 137 136 134
3.88306570053100586 -2.94265413284301758 93.516143798828125 141 137 137
1.77223265171051025 -2.36103367805480957 92.717926025390625 118 134 147
2.30867552757263184 -2.72014713287353516 93.7385711669921875 149 139 127
3.22506332397460938 -0.93188774585723877 92.6168136596679688 120 141 161
5.08683490753173828 -2.51218152046203613 93.366943359375 161 159 146
2.72573399543762207 -1.51155221462249756 92.594696044921875 127 148 166
3.94219350814819336 -1.78282737731933594 93.5323104858398438 154 146 133
6.49791717529296875 -3.48803400993347168 93.1088104248046875 127 129 118
2.06358027458190918 -1.03809285163879395 93.7044677734375 145 135 125
5.2059478759765625 -3.638397216796875 93.4472808837890625 153 156 156
2.38895463943481445 -1.08860993385314941 92.8059234619140625 100 135 163
3.17931866645812988 -2.78506827354431152 93.3367233276367188 158 154 153
3.16616630554199219 -0.756098747253417969 92.6163711547851562 41 55 64
7.7156977653503418 -2.45133399963378906 93.3196258544921875 144 137 131
4.9534764289855957 -0.465630650520324707 93.5313796997070312 165 167 162
1.90058434009552002 -1.46478939056396484 92.7128524780273438 30 29 42
2.88592886924743652 -0.726858675479888916 92.5324630737304688 91 114 151
6.07635831832885742 -1.93055379390716553 93.3916702270507812 149 143 131
1.68778836727142334 -1.80216503143310547 92.8024520874023438 134 166 207
6.87086200714111328 -0.498540908098220825 93.3396377563476562 157 155 148
6.3912043571472168 -1.24492204189300537 25.5071296691894531 174 165 156
6.40041303634643555 -2.6525886058807373 93.3523025512695312 106 104 104
2.13214564323425293 -2.44570088386535645 93.6295013427734375 138 128 111
2.11898994445800781 -0.115944467484951019 93.8172988891601562 166 158 149
2.24329328536987305 -1.40995216369628906 92.639862060546875 170 203 244
2.7530219554901123 0.463980376720428467 93.554718017578125 168 161 153
2.1263120174407959 -2.4438936710357666 93.4761428833007812 135 127 115
5.75373315811157227 0.430183380842208862 93.588226318359375 157 154 139
1.80470216274261475 -1.55000746250152588 92.7795639038085938 36 35 47
5.51181125640869141 -2.55552816390991211 93.2913055419921875 161 154 148
5.99497270584106445 0.501951873302459717 93.5365524291992188 155 155 143
7.09567785263061523 -3.19406723976135254 93.2698593139648438 164 163 159
5.08280372619628906 -1.90112936496734619 93.4799728393554688 157 158 152
4.1958012580871582 -3.11688637733459473 93.4765396118164062 162 162 160
8.28304100036621094 -0.892420172691345215 93.3907852172851562 129 117 101
3.19699382781982422 -0.784634709358215332 92.6105575561523438 149 151 155
4.75982141494750977 -0.380979239940643311 93.53167724609375 162 165 159
2.25439739227294922 0.0622345134615898132 93.735748291015625 168 168 160
6.54305076599121094 -0.12134513258934021 93.4067306518554688 153 151 139
4.52561807632446289 -3.7210240364074707 93.5249252319335938 142 132 122
6.19364643096923828 -3.52630853652954102 93.2836380004882812 143 144 139
4.72124862670898438 -3.16790270805358887 93.4515762329101562 139 133 120
8.47791385650634766 -3.05364537239074707 93.5530624389648438 129 122 106
6.0513153076171875 -2.16989278793334961 93.1082992553710938 147 143 135
7.08265542984008789 -0.879065215587615967 93.3465042114257812 128 121 105
4.10289096832275391 -0.253335118293762207 93.5633392333984375 155 155 149
4.42965316772460938 -0.378111094236373901 93.5342025756835938 164 163 157
2.81428813934326172 -3.55775618553161621 93.5568923950195312 158 154 155
4.42316818237304688 -2.4054114818572998 93.4834365844726562 135 126 109
3.67969608306884766 0.166487365961074829 93.6659469604492188 154 153 149
6.89088344573974609 0.411067843437194824 93.4738540649414062 152 154 145
5.22133350372314453 0.00731052691116929054 93.6224136352539062 157 159 153
4.62272930145263672 -2.77483868598937988 93.7292327880859375 158 164 162
3.14434385299682617 -1.16418898105621338 92.6395187377929688 169 177 171
2.92532682418823242 -0.616521596908569336 92.7962112426757812 25 36 51
6.6572108268737793 -2.80463743209838867 92.9067230224609375 175 177 185
7.30665731430053711 -1.39010477066040039 92.9055404663085938 192 221 229
4.97273826599121094 -2.38158774375915527 93.449066162109375 163 161 149
7.64211893081665039 -1.36782205104827881 93.0757980346679688 205 220 219
2.49633097648620605 -0.985637664794921875 92.775299072265625 83 100 126
7.28798484802246094 -1.26105618476867676 92.8773574829101562 77 95 105
4.07683706283569336 -1.59011495113372803 93.5695953369140625 151 148 139
2.55549192428588867 -0.902898669242858887 92.7448348999023438 38 41 49
7.22740316390991211 -0.733581185340881348 93.2931900024414062 149 148 143
7.37277746200561523 -1.21919536590576172 92.9677352905273438 208 225 226
3.26746892929077148 -0.610312104225158691 93.836181640625 144 129 110
3.96837115287780762 -3.37475490570068359 93.5897445678710938 161 162 158
6.3920445442199707 -3.75600600242614746 93.0653533935546875 157 149 147
5.93616437911987305 -1.60312438011169434 93.3757476806640625 151 148 139
5.07543277740478516 -0.681163251399993896 93.3698272705078125 158 158 149
3.75831961631774902 -1.543914794921875 93.5903472900390625 155 146 143
5.55667543411254883 -0.210024937987327576 93.6314239501953125 158 156 143
2.48641872406005859 -3.38531875610351562 93.534942626953125 160 151 154
3.58471560478210449 -1.92621994018554688 93.6414413452148438 149 142 132
3.66130542755126953 0.178162083029747009 93.4319534301757812 157 152 146
2.3316195011138916 -1.07411658763885498 93.603790283203125 0 0 0
3.57782959938049316 0.409664779901504517 93.76324462890625 144 133 115
2.43482780456542969 -0.394190549850463867 93.8859481811523438 128 112 89
3.44623208045959473 -0.0951936841011047363 93.7956085205078125 136 127 112
3.38493037223815918 -1.01962947845458984 92.5764999389648438 66 66 62
3.54787707328796387 0.648637175559997559 93.7492218017578125 0 0 0
4.76003694534301758 -1.73114073276519775 93.4899139404296875 139 131 118
6.70950984954833984 -2.74942183494567871 92.7366714477539062 146 152 164
2.92854213714599609 0.297662973403930664 93.492523193359375 169 161 159
6.42777442932128906 -2.61380934715270996 92.9520950317382812 73 89 115
6.35305690765380859 -2.56825518608093262 92.8894195556640625 185 193 205
7.59298801422119141 -1.34222221374511719 92.9439773559570312 182 193 203
1.58710145950317383 -1.87305235862731934 92.8293075561523438 108 141 182
6.3765101432800293 -2.54161739349365234 92.804534912109375 126 147 166
2.21020078659057617 -1.29059815406799316 92.7584457397460938 116 152 186
7.71847820281982422 -1.41917252540588379 92.8280868530273438 128 132 136
7.73280000686645508 -1.39894747734069824 92.8963623046875 70 74 67
7.5083308219909668 -1.29078769683837891 93.0117645263671875 241 253 254
3.09959936141967773 -1.38603651523590088 93.043731689453125 50 45 41
6.53737831115722656 -2.69858574867248535 93.0859756469726562 90 107 128
3.31979107856750488 -1.02239346504211426 92.59930419921875 52 52 52
7.18598079681396484 -1.48554050922393799 92.9556121826171875 87 101 120
6.9181818962097168 -1.84270405769348145 92.9865646362304688 105 128 154
2.64005780220031738 -0.833959519863128662 92.6993331909179688 31 43 55
2.30838322639465332 -1.87991869449615479 92.6174545288085938 119 142 156
6.38489723205566406 -2.56834840774536133 93.0254440307617188 160 177 190
7.2774052619934082 -1.39937233924865723 92.7325897216796875 242 255 251
4.01484489440917969 -2.89455533027648926 93.4543228149414062 162 167 170
8.00832557678222656 -1.80684709548950195 93.0173492431640625 141 131 127
7.02125024795532227 -1.47380363941192627 93.3730850219726562 118 100 78
5.82115793228149414 -0.427435815334320068 93.7384490966796875 142 131 113
8.05658245086669922 -0.400724947452545166 93.2729034423828125 145 142 135
7.4907536506652832 -1.07064175605773926 93.3528518676757812 124 109 86
2.41543769836425781 -2.14562249183654785 93.1475677490234375 108 96 74
2.92313885688781738 -0.657073020935058594 92.5784378051757812 21 37 63
2.88936829566955566 -0.600511133670806885 92.806549072265625 119 104 96
2.93750953674316406 -1.26201128959655762 92.5524368286132812 138 162 180
6.70074796676635742 -2.7898561954498291 92.8510894775390625 89 95 99
6.45737123489379883 -3.92729616165161133 92.7859725952148438 126 122 123
4.01398944854736328 -2.89622926712036133 93.4123687744140625 157 162 165
3.83207440376281738 0.42866179347038269 92.7401962280273438 0 0 0
6.39119482040405273 -2.620880126953125 92.9440460205078125 88 90 93
6.47557878494262695 -2.67999720573425293 92.9893722534179688 78 81 96
6.41224908828735352 -2.53724789619445801 92.9470443725585938 184 202 224
8.74094963073730469 0.000303625332890078425 93.2498703002929688 144 146 133
6.42005491256713867 -2.41720199584960938 93.1236038208007812 71 81 107
2.2205812931060791 -1.95379805564880371 92.611236572265625 114 135 148
1.9049224853515625 -1.49493002891540527 92.7046890258789062 225 244 250
1.9535067081451416 -1.46803319454193115 92.7201995849609375 138 157 190
8.52311611175537109 -0.120363242924213409 93.222869873046875 129 123 107
7.68522548675537109 -1.53119194507598877 93.0428085327148438 62 70 76
7.27879571914672852 -1.31532669067382812 92.8271713256835938 224 250 255
7.73215150833129883 -1.41927635669708252 93.0630416870117188 185 189 193
2.0188140869140625 -1.3686898946762085 92.812347412109375 31 39 59
2.17003726959228516 -1.28112673759460449 92.853851318359375 102 142 182
2.89408540725708008 -2.56362318992614746 93.559417724609375 133 120 106
2.16597843170166016 -1.24498558044433594 92.7548370361328125 82 88 110
4.27690887451171875 0.219126150012016296 93.5974960327148438 169 165 162
3.06190371513366699 -1.24690723419189453 92.5860366821289062 39 44 37
7.29983758926391602 -1.32798075675964355 92.9712066650390625 115 138 150
7.31240940093994141 -1.30536568164825439 92.8969497680664062 118 140 151
7.58026361465454102 -1.31475722789764404 92.8197708129882812 79 87 90
2.22602701187133789 -1.16539156436920166 92.7504959106445312 32 28 25
6.44987583160400391 -3.51720166206359863 93.1117935180664062 122 113 108
2.38341403007507324 -1.06036794185638428 92.6701812744140625 18 44 59
3.14477109909057617 -1.18298804759979248 92.6130447387695312 61 62 56
2.55308437347412109 -0.917274713516235352 92.8175430297851562 27 34 58
2.99666953086853027 -0.628685951232910156 92.8006439208984375 45 60 63
3.16209888458251953 -0.710717678070068359 92.6701889038085938 67 73 70
3.00865936279296875 -0.554181456565856934 92.8331832885742188 52 41 36
6.68932628631591797 -2.84701681137084961 93.0474624633789062 126 113 103
2.41043925285339355 -1.77080178260803223 92.4978561401367188 163 183 200
6.96872138977050781 -2.43790912628173828 93.0982666015625 155 171 183
6.64876985549926758 -2.18881988525390625 92.9516754150390625 95 109 136
1.48539507389068604 -1.87291216850280762 92.7221908569335938 79 98 132
2.62708759307861328 -0.84927213191986084 92.545989990234375 25 39 53
1.57055842876434326 -1.83719193935394287 92.7502059936523438 85 118 160
1.59768903255462646 -1.82527101039886475 92.8588180541992188 146 181 221
1.58152604103088379 -1.76498007774353027 92.82183837890625 113 126 145
6.98376607894897461 -1.75357913970947266 92.9532699584960938 57 73 98
1.81186783313751221 -1.58473312854766846 92.8241043090820312 88 113 142
6.59558439254760742 -2.88959622383117676 93.372833251953125 141 131 119
1.79922914505004883 -1.51535975933074951 92.7400741577148438 124 115 100
2.59026479721069336 -1.49855697154998779 92.5538253784179688 196 230 255
7.11848974227905273 -1.58974289894104004 93.0269622802734375 84 102 120
7.87083292007446289 -0.0428191311657428741 93.5978012084960938 155 155 147
7.65105009078979492 -1.53386592864990234 92.8678817749023438 202 213 223
2.09400749206542969 -1.35428464412689209 92.7443618774414062 138 169 200
2.20272350311279297 -1.2736048698425293 92.8448944091796875 73 107 135
2.35308670997619629 -1.19371020793914795 92.6916122436523438 121 154 192
3.11822652816772461 -0.589642465114593506 92.9335861206054688 68 63 58
6.662139892578125 -2.82474899291992188 92.875579833984375 59 44 49
6.88189458847045898 -2.59630584716796875 93.0323638916015625 113 113 111
7.01815462112426758 -2.3531944751739502 92.9011001586914062 167 178 186
6.68617153167724609 -2.13475680351257324 92.8234634399414062 93 106 129
1.92753839492797852 -1.52058780193328857 92.7373046875 78 107 141
3.79242420196533203 -0.732744693756103516 93.5525283813476562 159 153 147
7.20173835754394531 -1.51604855060577393 92.797454833984375 88 112 138
2.67887568473815918 -0.837530434131622314 92.6617507934570312 65 91 108
6.47523021697998047 -3.52726101875305176 93.20648193359375 60 50 51
6.47523021697998047 -3.52726101875305176 93.20648193359375 60 50 51
7.17236661911010742 -1.5221097469329834 93.0253448486328125 103 124 148
7.37883615493774414 -1.28003191947937012 92.9130935668945312 224 241 255
3.03590583801269531 -1.18524813652038574 92.656036376953125 138 160 181
3.62229156494140625 -2.64572000503540039 93.4986953735351562 157 160 153
3.15488719940185547 -3.44222450256347656 93.5201263427734375 165 156 156
3.2877357006072998 -3.4090428352355957 93.5130157470703125 164 156 154
4.45842599868774414 -2.56851577758789062 93.4808807373046875 158 155 150
4.32323980331420898 -2.12806916236877441 93.3631057739257812 168 165 160
5.22501564025878906 -2.16965746879577637 93.4405059814453125 160 159 154
5.01803112030029297 -0.21546269953250885 93.4700088500976562 165 165 163
2.31881260871887207 -1.81324255466461182 92.6470565795898438 163 198 219
4.33665990829467773 -1.29345321655273438 93.4876861572265625 158 148 138
5.59691047668457031 -1.37803864479064941 93.3797531127929688 161 160 155
6.97335386276245117 -1.05347728729248047 93.2934341430664062 153 144 139
6.60935544967651367 -2.79908442497253418 92.9255294799804688 93 93 92
1.48370373249053955 -0.944100618362426758 93.4764022827148438 153 142 136
5.18800687789916992 -1.00613701343536377 93.4136123657226562 170 160 158
3.19845986366271973 -0.433154970407485962 93.5624618530273438 153 140 124
4.26742649078369141 -0.509971976280212402 93.5146102905273438 165 162 155
5.05897998809814453 -0.0684232562780380249 93.5607757568359375 168 169 163
4.6345372200012207 -3.39642429351806641 93.36248779296875 142 134 131
5.55054235458374023 -3.42535209655761719 93.460357666015625 158 158 158
3.08445334434509277 -3.12792873382568359 93.59783935546875 156 152 153
3.18646383285522461 -1.0825951099395752 92.502838134765625 95 109 120
1.52591490745544434 -3.00210404396057129 93.6137847900390625 136 123 113
2.4328761100769043 -2.90793156623840332 93.59576416015625 155 146 140
3.06738519668579102 -2.68326210975646973 93.6093826293945312 155 154 150
5.50986766815185547 -2.5561981201171875 93.2409820556640625 160 155 144
9.63474178314208984 -2.77957296371459961 93.3711395263671875 129 121 102
7.55441093444824219 -2.59939980506896973 93.2604751586914062 145 138 128
4.21476173400878906 -2.05742764472961426 93.4324417114257812 140 134 122
4.21434164047241211 -2.06006050109863281 93.4175186157226562 140 134 122
5.98150205612182617 -2.19158458709716797 93.2888946533203125 155 147 136
6.66009855270385742 -2.78666353225708008 92.9147186279296875 93 101 117
4.25006246566772461 -1.96095514297485352 93.3711929321289062 158 148 145
4.60679912567138672 -1.73996090888977051 93.427093505859375 158 155 140
1.5415114164352417 -1.12025129795074463 93.4369735717773438 156 144 146
1.89775693416595459 -1.0875389575958252 93.7174835205078125 156 146 142
3.21330404281616211 -1.10921132564544678 92.4986648559570312 47 49 38
2.06103777885437012 -1.03808808326721191 93.6750335693359375 152 138 127
2.40374565124511719 -1.03173923492431641 92.9526596069335938 40 45 61
5.75754499435424805 -1.08320498466491699 93.4251632690429688 160 151 143
5.75727748870849609 -1.08318936824798584 93.404144287109375 160 151 143
2.24301695823669434 -3.53190875053405762 93.5588531494140625 155 154 151
1.71262359619140625 -0.635812759399414062 93.7157440185546875 157 143 130
7.99164628982543945 -0.709771692752838135 93.239044189453125 154 151 146
3.42280697822570801 -0.4154776930809021 93.6437759399414062 160 154 142
4.37589740753173828 -0.376833111047744751 93.5714187622070312 170 170 170
4.92823219299316406 -1.92670035362243652 93.39202880859375 146 134 118
1.81347167491912842 -0.171605125069618225 93.620513916015625 169 160 155
2.23497247695922852 -0.0813803225755691528 93.7320938110351562 148 138 128
3.70786261558532715 -0.150429084897041321 93.6002655029296875 147 137 135
6.8168792724609375 -0.0495831519365310669 93.4575958251953125 157 155 143
3.52642059326171875 0.194730028510093689 93.8228836059570312 148 141 130
3.18388152122497559 0.181077152490615845 93.6593246459960938 164 159 153
5.51762771606445312 -3.65298604965209961 93.3374176025390625 157 153 150
7.1121973991394043 -3.68620419502258301 93.23809814453125 149 148 144
3.33962416648864746 -3.61564803123474121 93.4515151977539062 140 129 123
7.3482818603515625 -0.554094374179840088 93.4056396484375 157 159 154
4.86730575561523438 -3.50070071220397949 93.5126571655273438 147 139 128
7.23698902130126953 -3.34116554260253906 93.1922683715820312 155 145 144
7.23512125015258789 -3.34209084510803223 93.2277755737304688 155 145 144
2.29225897789001465 -1.10791420936584473 92.7455673217773438 54 38 31
1.70230817794799805 -2.34432673454284668 92.7665863037109375 164 199 219
7.99204587936401367 -2.21640491485595703 93.3824005126953125 145 147 144
5.40269804000854492 -1.55706477165222168 93.4850311279296875 146 131 112
4.43745708465576172 -1.50357413291931152 93.44378662109375 160 152 141
1.99697887897491455 -1.24904704093933105 93.358734130859375 145 129 116
4.47477197647094727 -1.3648906946182251 93.53680419921875 141 127 101
6.44913625717163086 -2.65542912483215332 93.092132568359375 156 168 187
6.44759416580200195 -1.24191462993621826 93.3668441772460938 158 148 138
4.53638458251953125 -1.11816155910491943 93.502655029296875 142 132 120
7.23761463165283203 -0.889770984649658203 93.4435882568359375 129 121 108
7.55175161361694336 -2.6022803783416748 93.3963394165039062 144 140 129
3.52623224258422852 -0.37554517388343811 93.613128662109375 139 124 105
1.57364475727081299 -0.00473716761916875839 93.6298446655273438 174 164 163
5.27232027053833008 -3.26046943664550781 93.4527969360351562 143 140 135
3.51795268058776855 -2.9364936351776123 93.531280517578125 141 131 129
5.55589580535888672 -2.96332836151123047 93.411224365234375 158 158 158
3.78139185905456543 -2.64168643951416016 93.3759307861328125 157 161 160
4.79574823379516602 -2.26193475723266602 93.731475830078125 147 138 129
7.48347949981689453 -0.603283345699310303 93.3114547729492188 139 130 121
7.17708253860473633 -0.108972959220409393 93.4324951171875 140 133 117
2.25740694999694824 0.0606201104819774628 93.6627349853515625 174 173 169
2.31995320320129395 -3.22579479217529297 93.6419906616210938 133 121 112
7.78066015243530273 -0.966352581977844238 93.2546844482421875 150 147 140
7.40129518508911133 0.380113929510116577 93.2506790161132812 154 154 142
8.43210315704345703 -3.71532750129699707 93.06756591796875 148 148 148
5.72022294998168945 -3.4157721996307373 93.5000686645507812 139 132 126
6.88186168670654297 -0.26257750391960144 93.4289398193359375 136 124 108
3.31575298309326172 -0.455810368061065674 93.327880859375 149 136 121
6.14979076385498047 -3.39643239974975586 93.2896804809570312 137 125 115
6.61872625350952148 -2.75324296951293945 92.9112167358398438 96 109 126
2.16608643531799316 -1.24485325813293457 92.722991943359375 109 113 130
2.15551614761352539 -1.20580673217773438 92.7043380737304688 130 113 97
2.20159125328063965 -1.24481117725372314 92.6687088012695312 90 117 143
3.08146357536315918 -1.23515057563781738 92.6073684692382812 59 61 56
3.10289382934570312 -1.21643948554992676 92.6068191528320312 53 54 48
3.11686038970947266 -1.16041433811187744 92.6096878051757812 81 91 93
3.24276137351989746 -1.0871654748916626 92.5856781005859375 59 57 44
3.14222455024719238 -0.709756672382354736 92.6214752197265625 137 142 145
6.55287075042724609 -2.74880671501159668 92.8995590209960938 75 79 76
6.42939138412475586 -2.55796051025390625 92.9670333862304688 80 98 116
2.02451586723327637 -1.73416483402252197 92.66192626953125 142 176 214
2.65711712837219238 -1.57595062255859375 92.5256576538085938 136 153 164
7.34284496307373047 -1.3217240571975708 92.911163330078125 223 238 243
7.7612919807434082 -1.39554989337921143 93.0382080078125 136 131 127
6.80339288711547852 -2.61156773567199707 92.6224212646484375 151 168 184
7.24433660507202148 -1.43776619434356689 92.9886703491210938 77 104 125
7.34086894989013672 -1.28770995140075684 92.8274688720703125 94 113 144
2.72393989562988281 -0.812572300434112549 92.6320419311523438 73 87 114
6.96705913543701172 -1.79596960544586182 92.9011993408203125 101 125 153
3.27321028709411621 -1.05488753318786621 92.4935379028320312 76 72 71
2.0764162540435791 -2.05476856231689453 92.6292648315429688 162 186 200
2.95909237861633301 -0.712104558944702148 92.6832351684570312 101 130 164
4.29072713851928711 -2.18270778656005859 93.4254226684570312 144 143 138
4.21457242965698242 -2.05472779273986816 93.4502792358398438 143 132 114
6.44930601119995117 -0.73610609769821167 93.3870086669921875 155 154 136
5.07012653350830078 -0.0644679069519042969 93.5440521240234375 169 169 160
2.24301695823669434 -3.53190875053405762 93.5588531494140625 155 154 151
5.13069295883178711 -3.36223006248474121 93.4928970336914062 160 161 158
6.47408390045166016 -3.05589604377746582 93.256683349609375 140 133 127
9.24985122680664062 -1.85416030883789062 93.2841262817382812 147 143 140
9.04629898071289062 -0.712812602519989014 93.1314315795898438 145 145 140
3.14442300796508789 -2.79556727409362793 93.620574951171875 159 157 152
9.6995086669921875 -1.36957120895385742 93.3192214965820312 122 120 105
5.92011308670043945 -0.777423322200775146 93.3329238891601562 141 131 119
5.54894065856933594 -0.164337769150733948 93.5614547729492188 157 157 140
9.38905906677246094 0.0624326318502426147 93.28277587890625 147 147 147
4.17682981491088867 -3.25538992881774902 93.5470657348632812 144 138 134
8.75940227508544922 -2.40943336486816406 93.2999649047851562 131 119 102
8.75940227508544922 -2.40943336486816406 93.2999649047851562 131 119 102
