ply
format ascii 1.0
element vertex 662
property float x
property float y
property float z
property uchar red
property uchar green
property uchar blue
end_header
4.93581628799438477 1.57556283473968506 15.9084291458129883 150 169 176
1.42246079444885254 2.07169175148010254 20.6826076507568359 118 125 117
1.16486060619354248 -2.38033723831176758 23.1587009429931641 108 112 111
5.63918685913085938 0.826654791831970215 17.1402912139892578 106 119 112
-7.20927858352661133 -4.65321254730224609 33.93572998046875 0 0 0
-5.44402217864990234 2.81647229194641113 28.9945220947265625 125 128 135
-17.6293487548828125 2.60292363166809082 45.1277389526367188 124 128 122
0.322634220123291016 -0.146486714482307434 23.9808139801025391 126 132 132
7.62118005752563477 -1.03566205501556396 16.0813674926757812 105 114 113
7.08713674545288086 1.38062405586242676 13.7409868240356445 97 92 86
6.68975114822387695 0.936076521873474121 14.740910530090332 123 125 122
4.39799594879150391 -0.950346052646636963 18.8040313720703125 114 120 116
-6.38985681533813477 2.10129976272583008 32.2962532043457031 119 124 116
1.31576168537139893 -0.362596571445465088 22.8811836242675781 124 126 123
-0.337220847606658936 -2.97874832153320312 25.9097690582275391 98 104 104
-1.94136393070220947 -0.346406817436218262 27.1635017395019531 105 55 56
-4.59272909164428711 2.45438504219055176 27.4372348785400391 127 123 113
5.08918142318725586 1.49782025814056396 15.9151210784912109 119 128 130
4.13480901718139648 -1.822304368019104 19.831787109375 136 156 165
-0.354665488004684448 -2.36682915687561035 26.7382011413574219 132 141 146
6.31461477279663086 1.23557174205780029 15.4328413009643555 80 79 74
-4.68339347839355469 2.03479695320129395 28.5400390625 149 153 152
-2.56551384925842285 2.35047698020935059 26.1643295288085938 159 167 186
-5.12348461151123047 -0.459705054759979248 32.042083740234375 131 89 101
3.51045560836791992 -1.75377929210662842 20.7975921630859375 0 0 0
-10.9093055725097656 -2.91207218170166016 39.4232406616210938 107 92 90
6.78146886825561523 0.0861149132251739502 15.0848350524902344 121 136 142
3.11217355728149414 2.40540671348571777 18.8256626129150391 139 159 150
5.43079996109008789 2.23645520210266113 14.9434299468994141 138 142 141
-3.749725341796875 -1.90108764171600342 31.2816638946533203 109 51 47
2.01137876510620117 -0.968473136425018311 21.4398460388183594 125 138 146
5.52695941925048828 1.04037916660308838 16.7705955505371094 120 134 128
3.65332531929016113 -0.477024585008621216 20.0948009490966797 84 93 93
1.38955330848693848 0.951902568340301514 20.8974552154541016 107 112 108
0.652731418609619141 0.332288980484008789 22.9862308502197266 82 91 100
-2.70521950721740723 -2.19110679626464844 27.3568916320800781 130 102 99
3.01979470252990723 -0.309257030487060547 20.0319595336914062 151 170 166
-1.96957802772521973 0.567326247692108154 26.7058086395263672 144 124 122
5.49183273315429688 0.811173737049102783 16.9306297302246094 155 174 173
-10.9492950439453125 -2.13232588768005371 38.7909011840820312 140 129 116
-0.648526251316070557 0.987765192985534668 23.9804363250732422 220 231 223
-6.35444307327270508 1.67198944091796875 30.7087020874023438 116 108 98
6.68593692779541016 1.80557751655578613 14.7133007049560547 144 148 147
6.01294946670532227 0.572361290454864502 16.0264644622802734 142 156 156
6.54924249649047852 -0.726040244102478027 16.6791725158691406 99 111 109
6.33261203765869141 0.0815767049789428711 16.4771003723144531 96 102 108
6.9347076416015625 0.269475013017654419 16.3912105560302734 94 99 105
7.15325069427490234 -0.85579371452331543 15.9215812683105469 88 92 91
1.5552288293838501 1.29095184803009033 21.2697467803955078 145 159 162
5.42444038391113281 2.19028282165527344 16.2608299255371094 141 162 163
-1.10177338123321533 2.72360777854919434 23.1012687683105469 188 217 215
7.49011707305908203 1.46964406967163086 14.4241132736206055 107 111 105
5.53721523284912109 -0.20324079692363739 18.220428466796875 115 130 125
-1.09851741790771484 2.84694695472717285 23.0898704528808594 165 180 175
2.38278555870056152 -2.10783791542053223 22.5075702667236328 124 147 153
-1.09295272827148438 -2.40376448631286621 28.2431850433349609 125 125 125
1.1833871603012085 2.46897625923156738 24.1955204010009766 0 0 0
1.32626533508300781 -2.81169271469116211 21.9907398223876953 98 102 101
-0.775349974632263184 -1.59124302864074707 26.3438606262207031 103 86 90
1.24713802337646484 -0.200385063886642456 21.7009372711181641 90 86 83
5.75105190277099609 0.394364804029464722 15.9511289596557617 102 102 102
2.81186246871948242 0.44786497950553894 19.5873832702636719 142 159 167
-2.58744072914123535 -2.05051898956298828 26.9299697875976562 0 0 0
1.4585719108581543 1.25552999973297119 21.2945404052734375 98 102 97
0.0790241062641143799 2.44900226593017578 23.0260829925537109 153 161 150
3.44281601905822754 2.24616503715515137 17.6795158386230469 133 145 144
-11.2809066772460938 -1.41966044902801514 38.8843536376953125 151 144 134
5.82130956649780273 -0.317542135715484619 17.0430889129638672 139 156 150
-0.445485979318618774 1.15712130069732666 23.8590507507324219 134 144 152
-1.67522168159484863 1.45491600036621094 25.9848098754882812 131 121 120
-5.79221773147583008 1.70921635627746582 29.4239101409912109 139 142 141
0.576562821865081787 -0.148984283208847046 23.6787090301513672 118 116 119
-6.27123880386352539 1.83741700649261475 30.4000015258789062 125 112 106
-5.86048030853271484 2.2574915885925293 29.8299503326416016 123 122 120
6.92978572845458984 -0.451194494962692261 17.4047336578369141 93 101 92
-0.124370299279689789 1.6033027172088623 23.3577861785888672 152 162 161
2.0524594783782959 1.04159748554229736 20.8761081695556641 156 162 160
6.7501063346862793 1.71151852607727051 14.4237489700317383 119 126 118
0.976784467697143555 0.0619378350675106049 21.727752685546875 0 0 0
-2.99673342704772949 2.9470984935760498 25.4758224487304688 157 159 158
5.27773857116699219 2.14503645896911621 16.1735191345214844 128 137 134
-0.940680444240570068 -0.199237868189811707 25.5819721221923828 128 127 135
-2.22944855690002441 -2.49223875999450684 28.6921730041503906 118 67 64
4.78755712509155273 -0.446938812732696533 19.2338237762451172 205 217 215
0.21554584801197052 0.515148520469665527 24.1261005401611328 141 156 159
7.82207489013671875 -0.0193247776478528976 14.6244497299194336 129 133 132
3.30200862884521484 1.76495099067687988 18.9803314208984375 133 144 138
-1.74471902847290039 -0.802576541900634766 26.4398536682128906 144 132 140
6.91203069686889648 2.0269320011138916 14.2204732894897461 116 118 115
4.90973901748657227 1.62192070484161377 16.8709468841552734 115 126 122
-4.80634927749633789 -0.363445013761520386 30.1828250885009766 123 77 87
1.216636061668396 2.70993971824645996 21.0953407287597656 156 164 156
0.432254046201705933 -1.98884761333465576 24.3306617736816406 73 78 78
7.07767534255981445 1.56231534481048584 14.1063880920410156 89 89 81
3.87098217010498047 1.2391512393951416 18.4683933258056641 107 113 102
1.22982490062713623 -1.48482489585876465 22.7963714599609375 113 126 135
5.0905604362487793 -0.942333996295928955 18.7850189208984375 125 152 146
2.24177455902099609 -1.0008237361907959 21.9194431304931641 152 165 173
-12.6111488342285156 -4.94568061828613281 40.716033935546875 101 100 93
0.774859011173248291 0.00472066178917884827 23.8629722595214844 199 217 220
1.64061832427978516 -4.14636039733886719 24.2736740112304688 142 152 151
-5.38400411605834961 2.64171504974365234 28.9200019836425781 207 229 243
1.42931628227233887 -2.31953001022338867 23.6494350433349609 114 116 113
6.54138898849487305 1.50920939445495605 15.5715475082397461 110 115 111
-1.96952319145202637 -1.04885172843933105 27.7596855163574219 129 121 134
1.30646932125091553 -1.50124454498291016 22.9066791534423828 139 151 153
1.34434914588928223 -1.42113685607910156 22.8102035522460938 142 156 165
-37.391326904296875 -1.27832221984863281 72.4440383911132812 113 118 106
7.49480915069580078 -0.211830943822860718 14.578089714050293 108 110 103
-5.45033884048461914 2.58260703086853027 28.7833175659179688 116 127 144
1.46973121166229248 -1.12343060970306396 22.11126708984375 108 111 120
-5.07845497131347656 3.18824100494384766 28.596466064453125 155 178 186
1.41530311107635498 -1.17822325229644775 22.6570415496826172 109 119 120
7.79378795623779297 0.5893821120262146 14.082179069519043 99 100 94
0.615799903869628906 -2.3841855525970459 23.0747852325439453 75 80 82
2.95720434188842773 -0.367337524890899658 20.5108757019042969 111 116 119
-6.61725330352783203 0.93312680721282959 31.1133499145507812 145 142 149
7.20473194122314453 0.107047878205776215 14.9339313507080078 127 134 132
0.682378292083740234 -0.247302323579788208 23.6734066009521484 131 135 144
2.71075439453125 0.570085763931274414 19.8851718902587891 117 131 129
5.61107349395751953 1.71195542812347412 13.7159652709960938 170 199 215
1.23322117328643799 -1.07942032814025879 21.6563549041748047 126 130 131
-1.23661661148071289 -1.34091281890869141 27.2961406707763672 109 67 67
1.04756033420562744 0.048338916152715683 22.8743114471435547 132 134 131
7.35093975067138672 0.265029966831207275 15.4987382888793945 130 134 135
3.5359795093536377 1.48856973648071289 18.0307044982910156 104 108 91
3.51673269271850586 -1.78275454044342041 22.3737907409667969 89 95 95
3.5359795093536377 1.48856973648071289 18.0307044982910156 104 108 91
5.77903032302856445 -0.318567007780075073 16.6368942260742188 113 132 130
-2.48402905464172363 2.02179694175720215 25.9608936309814453 157 158 157
-3.13805437088012695 -2.06399059295654297 28.8430271148681641 124 85 86
6.69937515258789062 -0.116267375648021698 16.7317771911621094 133 148 152
4.10190582275390625 -1.48712944984436035 21.0749168395996094 136 164 175
6.70513200759887695 -0.436191290616989136 16.3081741333007812 82 87 81
4.87384891510009766 -3.42871546745300293 22.9358024597167969 109 118 115
3.95141005516052246 0.770080089569091797 18.3436851501464844 105 115 106
6.5017094612121582 0.108838595449924469 9.82691383361816406 109 114 107
-2.61895108222961426 -2.48112368583679199 30.2547168731689453 110 71 72
3.34775424003601074 0.0998629629611968994 20.1683387756347656 131 146 150
1.53865993022918701 2.43718123435974121 20.8219985961914062 86 89 83
-0.242646574974060059 -3.01509833335876465 25.4781875610351562 96 101 105
4.9933013916015625 -0.904265820980072021 18.9493579864501953 106 117 123
1.43100631237030029 1.35657882690429688 21.81707763671875 115 123 126
5.65155696868896484 1.42516195774078369 11.3794870376586914 114 115 122
2.49220895767211914 2.23197460174560547 18.5836582183837891 130 142 144
1.19586527347564697 -1.63079595565795898 23.0282955169677734 162 174 177
2.83641290664672852 -0.693464219570159912 20.9463882446289062 120 131 130
-6.56332015991210938 1.18983757495880127 30.8515453338623047 109 102 110
5.76055431365966797 0.236369043588638306 16.5160293579101562 136 152 151
1.42916750907897949 0.902433574199676514 21.0471515655517578 99 100 97
-2.65128183364868164 -3.01624345779418945 29.4901485443115234 91 52 53
-0.493057757616043091 1.37637186050415039 23.4268093109130859 140 130 128
4.01650619506835938 -0.593992888927459717 18.0788326263427734 137 157 155
1.53974497318267822 -1.27620434761047363 22.3291473388671875 98 99 109
2.88416624069213867 -0.695524811744689941 20.9465007781982422 117 126 123
1.34333968162536621 0.462575763463973999 22.6242752075195312 135 140 146
7.67959833145141602 0.113049253821372986 15.3244810104370117 137 152 147
0.773897469043731689 -1.91479015350341797 23.6988239288330078 140 143 142
4.64058303833007812 2.02731919288635254 17.0857582092285156 140 158 162
3.51090908050537109 0.832827985286712646 19.7821197509765625 0 0 0
0.692541599273681641 -1.6476975679397583 24.0437164306640625 79 80 84
3.20007181167602539 -0.644175410270690918 20.96112060546875 141 162 164
1.22784769535064697 -1.61426913738250732 22.6016921997070312 164 182 184
3.3400871753692627 -1.39381253719329834 20.2505760192871094 96 107 109
3.34272408485412598 -1.39696180820465088 20.2919921875 96 107 109
6.27395963668823242 -0.838023960590362549 17.3609485626220703 148 169 174
1.47524821758270264 -1.22198343276977539 22.4741744995117188 142 157 164
1.72720992565155029 -0.84544450044631958 21.4704971313476562 133 149 148
2.95080256462097168 -0.693724095821380615 21.1664409637451172 118 131 129
7.10683250427246094 1.20296812057495117 14.1988277435302734 99 99 97
6.69497871398925781 -0.372886925935745239 16.4895172119140625 85 100 95
-0.951598107814788818 -0.00187909591477364302 25.8117694854736328 158 162 156
-8.58693027496337891 -4.26248645782470703 38.2756385803222656 128 132 133
5.0386052131652832 0.944009065628051758 17.4147357940673828 146 155 147
-1.56285178661346436 0.326208770275115967 25.7648811340332031 176 169 181
6.96627569198608398 1.87778830528259277 14.1872243881225586 89 90 86
-0.230476602911949158 1.55999493598937988 23.2060985565185547 162 165 153
-0.0646872371435165405 1.78547835350036621 23.0151519775390625 157 165 153
6.44329309463500977 1.47464895248413086 14.9461393356323242 108 113 109
0.845360636711120605 -2.14952588081359863 24.4627933502197266 128 121 112
3.77322173118591309 0.229255110025405884 19.3662376403808594 123 145 147
0.540527880191802979 -1.75967013835906982 26.0178356170654297 88 84 85
-1.58248376846313477 0.519231975078582764 25.0655498504638672 114 101 95
-0.668932557106018066 1.39549756050109863 23.7625293731689453 155 157 147
-0.376385152339935303 1.37100601196289062 23.5700473785400391 151 160 148
4.02328920364379883 1.70358037948608398 18.3327350616455078 136 147 138
6.67971038818359375 1.17474997043609619 15.2703399658203125 98 112 109
3.78780555725097656 1.41485095024108887 18.3234004974365234 120 137 129
6.55217695236206055 1.15977001190185547 15.1640815734863281 147 157 156
3.5805206298828125 -1.78794550895690918 20.1284694671630859 85 96 102
6.74198722839355469 0.280306190252304077 15.8892297744750977 112 126 119
-1.83432722091674805 -2.70985126495361328 28.3921737670898438 111 80 75
-1.51020359992980957 -2.54734945297241211 26.3427162170410156 111 80 75
7.45795583724975586 0.862350642681121826 14.6009483337402344 118 130 122
1.7229846715927124 -1.92810201644897461 23.1607418060302734 122 113 106
0.643009424209594727 -1.77179288864135742 12.2216863632202148 130 134 135
6.19625520706176758 -0.71749192476272583 16.7518329620361328 131 148 156
3.26742863655090332 -0.805673718452453613 20.3737449645996094 111 123 119
-0.772320389747619629 -1.66198170185089111 26.2626609802246094 108 89 91
1.33549559116363525 3.0668799877166748 19.9521656036376953 129 140 136
1.56753885746002197 1.25958752632141113 21.1200981140136719 140 146 142
-1.11062049865722656 -2.52008962631225586 29.3176822662353516 125 127 127
3.25000810623168945 2.42988324165344238 18.1073417663574219 134 152 140
7.06967639923095703 -0.661145508289337158 15.7700557708740234 87 93 89
6.65114736557006836 -0.946967363357543945 17.2701377868652344 135 153 157
3.19409418106079102 2.16032934188842773 17.788299560546875 113 118 112
6.72555208206176758 -1.77183294296264648 17.1994037628173828 90 94 97
-0.937345921993255615 0.223095297813415527 25.5306377410888672 127 125 120
-1.12290072441101074 0.106370694935321808 25.6301651000976562 105 86 79
-10.2517528533935547 5.53466987609863281 33.0645065307617188 165 171 162
1.05577123165130615 -2.03105974197387695 23.9662017822265625 94 90 95
0.115340963006019592 1.49529826641082764 22.7887554168701172 116 116 105
-0.758019149303436279 -1.28557872772216797 25.8543014526367188 132 120 119
2.84440851211547852 1.0207895040512085 20.1348724365234375 99 114 111
2.691162109375 0.870456337928771973 19.9500522613525391 100 109 106
3.18076467514038086 -1.98912763595581055 21.4266281127929688 78 87 95
6.33921718597412109 -1.81165575981140137 15.5663423538208008 124 137 145
1.63970136642456055 3.48876214027404785 19.7398033142089844 75 75 68
-0.589385449886322021 -0.554650545120239258 25.0926284790039062 78 66 69
6.28914260864257812 1.14711844921112061 15.4294729232788086 127 128 122
-12.092926025390625 1.8228762149810791 37.633453369140625 139 129 127
2.03182530403137207 1.69640040397644043 20.5955162048339844 153 170 162
0.739824295043945312 -2.03891134262084961 23.9677600860595703 167 178 184
6.19645309448242188 -0.847041964530944824 16.8635692596435547 101 118 128
4.20245456695556641 -1.17699611186981201 18.4608097076416016 141 162 167
-0.871420621871948242 -0.470178961753845215 25.2663402557373047 110 119 118
5.30316638946533203 -0.0179706830531358719 18.0201206207275391 143 159 159
3.59672856330871582 1.34382915496826172 17.9060802459716797 100 108 95
4.39543008804321289 0.670669257640838623 18.2207355499267578 140 151 156
5.05759668350219727 1.3208770751953125 17.4180145263671875 104 121 111
-8.24787044525146484 -4.17440891265869141 37.2077407836914062 130 127 121
3.91244840621948242 2.00050020217895508 17.6873874664306641 136 150 150
3.37987184524536133 2.04231524467468262 18.5781974792480469 110 112 107
4.4559626579284668 2.13051533699035645 17.2417736053466797 132 129 123
5.79417848587036133 -0.279054880142211914 17.0506744384765625 135 155 154
-0.181208282709121704 0.424504935741424561 24.3898887634277344 127 131 132
5.78740406036376953 -0.281280487775802612 17.0145149230957031 135 155 154
5.03945827484130859 1.47694861888885498 17.3168087005615234 114 126 121
1.49169027805328369 0.325827568769454956 22.8755912780761719 133 144 150
5.7477564811706543 -0.90884864330291748 18.5042438507080078 109 122 122
3.69861817359924316 1.43320238590240479 18.5400352478027344 136 149 142
-0.905086994171142578 -1.22570478916168213 26.8298587799072266 107 97 96
2.17833375930786133 -0.0812218710780143738 21.2871150970458984 106 123 117
-1.48206853866577148 -2.04002118110656738 26.8648204803466797 109 61 61
-20.613677978515625 0.443848162889480591 50.3281822204589844 107 102 101
-6.80577802658081055 0.765063047409057617 31.5298748016357422 165 178 170
2.33837532997131348 -3.03332948684692383 22.8338603973388672 102 106 105
4.16974496841430664 -2.49410080909729004 20.0440044403076172 82 86 89
-5.09703922271728516 -5.12386941909790039 31.8065547943115234 129 146 155
1.46307408809661865 -2.22462201118469238 23.6681900024414062 94 97 96
0.119500800967216492 -2.05588006973266602 25.78057861328125 108 113 111
-10.7553634643554688 -1.67439079284667969 38.6736259460449219 141 128 112
0.973585009574890137 -0.701615333557128906 23.5722904205322266 85 85 85
-5.30033159255981445 -4.55331277847290039 33.1569290161132812 126 129 122
1.1353306770324707 -1.78190934658050537 23.4337387084960938 121 133 131
7.64237022399902344 -1.04163551330566406 16.1403980255126953 112 116 115
-3.07306075096130371 3.06115579605102539 26.3358383178710938 148 158 157
2.74024462699890137 0.406604588031768799 20.3330078125 120 128 130
-9.6552276611328125 1.87024402618408203 34.89703369140625 154 163 158
4.13896274566650391 1.21779537200927734 17.6989498138427734 133 143 141
1.48034131526947021 3.43605637550354004 19.7828750610351562 151 153 146
3.93187141418457031 -2.20205020904541016 21.3133544921875 93 104 101
-0.803839802742004395 1.39388704299926758 22.8830432891845703 128 135 141
-2.23152399063110352 -4.04382944107055664 28.9296340942382812 131 147 142
5.88313150405883789 0.508537530899047852 16.3332328796386719 98 103 98
1.92157375812530518 2.00401139259338379 21.8229732513427734 94 94 89
2.79964542388916016 1.48436987400054932 19.8040695190429688 114 122 108
0.202307850122451782 2.03921627998352051 23.4064598083496094 142 158 158
-8.44911384582519531 2.698944091796875 33.3591804504394531 0 0 0
-4.21378707885742188 -1.45281684398651123 28.9984188079833984 118 80 91
4.01046562194824219 0.165376588702201843 20.0250358581542969 136 163 158
1.43416905403137207 1.74790859222412109 20.9581851959228516 69 70 66
1.10938692092895508 -1.94623839855194092 22.4118137359619141 103 102 100
1.31283390522003174 -1.72862231731414795 23.0078086853027344 125 133 144
1.59538304805755615 2.32914543151855469 19.7961177825927734 98 109 112
-0.958652913570404053 -2.42026114463806152 27.3689098358154297 125 127 127
6.32579135894775391 0.127009853720664978 16.746673583984375 190 204 213
-14.4587516784667969 2.03615188598632812 47.5555000305175781 0 0 0
6.88487577438354492 0.753891587257385254 16.7933979034423828 139 152 160
4.29419422149658203 -1.18826401233673096 19.8897132873535156 139 154 159
6.52712440490722656 0.640389382839202881 15.6574897766113281 77 87 89
3.29006052017211914 -1.21115982532501221 20.6667385101318359 147 166 162
-3.08898544311523438 -0.822204470634460449 28.80206298828125 0 0 0
7.11958885192871094 -0.894006609916687012 17.324951171875 122 136 136
-0.912201166152954102 -2.20900845527648926 28.0874271392822266 107 92 85
-8.79321193695068359 -2.83524727821350098 37.4576530456542969 128 109 102
3.67200946807861328 0.527442872524261475 16.3974761962890625 87 92 88
-0.515164315700531006 -1.94882237911224365 26.7945613861083984 135 135 135
-11.8371038436889648 0.0678202956914901733 38.9595489501953125 151 158 155
3.52430129051208496 1.2926560640335083 17.4875774383544922 91 96 89
3.24832749366760254 0.832986593246459961 18.743804931640625 124 148 152
0.856939196586608887 -0.206373855471611023 24.2165050506591797 125 135 140
5.78952836990356445 1.02741754055023193 16.4462299346923828 131 143 134
-1.40134704113006592 0.330415010452270508 25.9177742004394531 133 141 143
-7.01220083236694336 1.30233132839202881 33.8487777709960938 130 130 118
-11.9301538467407227 -2.54452753067016602 39.4552345275878906 140 143 141
8.9859161376953125 -0.654495179653167725 13.260615348815918 93 103 95
-4.61015129089355469 -0.458630025386810303 29.6930255889892578 122 85 92
-11.7601108551025391 -0.299550056457519531 39.095367431640625 105 108 98
1.08981168270111084 -0.728813052177429199 24.6070613861083984 126 132 130
-2.42892336845397949 -3.21668052673339844 30.6937370300292969 134 129 133
-0.877946019172668457 0.0296022556722164154 24.8949661254882812 101 87 78
1.19958007335662842 -0.862147748470306396 23.3295860290527344 118 129 131
1.06059384346008301 -1.17232382297515869 0.724836111068725586 104 80 78
-1.52287650108337402 0.44959181547164917 25.5180912017822266 135 137 132
-0.704418778419494629 1.89509749412536621 24.0439510345458984 157 161 139
1.55716598033905029 -1.35226559638977051 22.3594245910644531 116 119 124
2.02811932563781738 2.17836856842041016 20.3024234771728516 123 120 111
-1.72745811939239502 -0.451598078012466431 26.5004425048828125 126 121 119
0.7010345458984375 -0.00400996394455432892 24.0261402130126953 130 151 154
4.84042215347290039 -0.842952489852905273 19.3214263916015625 98 110 107
5.62906980514526367 -0.652015268802642822 18.3520870208740234 105 122 115
1.90291476249694824 -2.31358027458190918 23.4312019348144531 0 0 0
7.21553611755371094 -1.20312201976776123 16.7531204223632812 119 139 140
3.13829183578491211 2.11658406257629395 17.0786857604980469 119 134 144
6.8807525634765625 -0.66597980260848999 16.6297569274902344 92 103 99
-0.987797260284423828 0.61586296558380127 25.0158710479736328 138 152 152
1.66903531551361084 1.24750995635986328 20.7152557373046875 142 151 150
5.81952571868896484 1.45175647735595703 15.9083080291748047 140 159 153
7.6252598762512207 1.49782299995422363 14.3441791534423828 90 92 87
3.78122639656066895 2.12746429443359375 18.1261119842529297 98 101 90
2.88332128524780273 -0.745621263980865479 21.1002559661865234 89 92 90
7.21003055572509766 1.81152760982513428 13.9505577087402344 99 97 84
4.06377840042114258 -1.8546755313873291 18.5980110168457031 0 0 0
7.64211750030517578 1.69762837886810303 14.5678176879882812 97 90 86
5.68630170822143555 1.78828859329223633 16.1185531616210938 139 154 149
6.87242698669433594 -0.0781233608722686768 15.7976064682006836 98 109 105
6.83081817626953125 -0.0811919942498207092 15.6802148818969727 98 109 105
7.5212244987487793 0.845541238784790039 14.1550388336181641 87 87 85
4.43907976150512695 1.98481369018554688 18.1465282440185547 133 144 140
0.0647410526871681213 1.68702101707458496 22.1320056915283203 0 0 0
1.36319589614868164 -1.15061831474304199 -1.64563179016113281 83 97 98
5.13631629943847656 0.869614303112030029 17.5032844543457031 109 122 118
6.92509937286376953 -0.648048102855682373 16.0444927215576172 111 127 126
7.42159891128540039 0.160011246800422668 15.1514034271240234 104 106 103
7.26467609405517578 0.652047574520111084 14.9084224700927734 124 138 141
5.40471124649047852 -2.01413702964782715 18.1065769195556641 112 126 131
7.25404453277587891 0.647534310817718506 14.8922119140625 124 138 141
4.38925504684448242 1.96717143058776855 19.4248733520507812 137 149 145
7.22543811798095703 -0.876795351505279541 16.3695545196533203 98 108 100
6.87889957427978516 -0.0900649279356002808 15.9228572845458984 128 130 142
7.10999441146850586 -0.872622668743133545 16.0657615661621094 98 108 100
7.39343023300170898 -1.25393378734588623 16.2237091064453125 104 120 113
6.28413915634155273 0.186274632811546326 16.4984855651855469 107 122 119
3.25275135040283203 -1.19706070423126221 20.1147708892822266 119 140 138
4.55371189117431641 -1.78675413131713867 20.7604084014892578 143 161 163
-1.46985840797424316 0.3744925856590271 26.026458740234375 114 102 102
-0.938129782676696777 0.780252337455749512 25.0796928405761719 148 149 146
-0.86000746488571167 0.752285361289978027 24.5542182922363281 148 149 146
-0.983714580535888672 -1.68003296852111816 26.5804710388183594 121 106 103
7.08675289154052734 -1.09643781185150146 15.7860164642333984 92 92 90
5.42902803421020508 -0.544931888580322266 17.3108959197998047 103 115 111
5.64557552337646484 -0.375168651342391968 18.6652336120605469 110 125 122
0.735384464263916016 -0.406748056411743164 23.637786865234375 125 126 128
-1.70459437370300293 -0.226276606321334839 26.9259300231933594 110 105 100
7.57815694808959961 0.554449558258056641 14.0039310455322266 83 83 74
5.39502286911010742 0.0154215684160590172 17.796112060546875 84 96 92
1.87601423263549805 3.73004317283630371 20.4847393035888672 79 67 67
-0.909338653087615967 -0.0818780213594436646 25.4821910858154297 121 125 120
0.847109317779541016 -0.550406694412231445 22.6517429351806641 119 121 116
-0.231583550572395325 1.5995326042175293 23.3996658325195312 147 151 136
3.84725642204284668 1.38558995723724365 18.8090934753417969 122 130 119
3.7967677116394043 1.43171095848083496 18.4625511169433594 123 135 126
-0.944724500179290771 2.81417512893676758 23.5686187744140625 124 127 115
7.21215915679931641 1.18994224071502686 13.9815759658813477 87 87 82
6.86397695541381836 -1.01574528217315674 17.1076221466064453 137 149 153
5.74381351470947266 1.56417155265808105 15.9558544158935547 141 160 167
-0.363685250282287598 2.32385945320129395 23.4523525238037109 67 74 74
0.0736771225929260254 -1.37270760536193848 24.1012458801269531 87 72 69
7.47089576721191406 1.32015097141265869 13.6512584686279297 121 133 138
7.24308061599731445 1.77171123027801514 14.2805986404418945 125 143 125
2.27896571159362793 -2.23914432525634766 23.2234687805175781 106 121 127
7.42547750473022461 1.78230631351470947 13.4214811325073242 128 137 132
-3.28791546821594238 -3.04607939720153809 31.2202854156494141 115 67 63
5.17450380325317383 -1.16308295726776123 19.037261962890625 129 150 151
0.0490606613457202911 -1.26452922821044922 24.7588882446289062 100 89 97
-0.885755836963653564 0.308666586875915527 25.3521556854248047 130 127 126
-1.03827333450317383 -0.871251821517944336 26.5718669891357422 131 132 124
5.76055431365966797 0.236369043588638306 16.5160293579101562 136 152 151
6.88035821914672852 0.590254366397857666 15.0388021469116211 129 135 133
3.84556889533996582 1.85886275768280029 18.1813564300537109 97 103 93
6.79559898376464844 1.78702020645141602 14.07147216796875 117 122 108
7.0036005973815918 0.431622773408889771 15.0473804473876953 130 134 145
3.01134443283081055 2.52249717712402344 17.8341426849365234 108 115 99
-6.61420679092407227 1.22198450565338135 31.0390567779541016 102 89 85
0.922622323036193848 -1.60194277763366699 22.7737216949462891 85 84 90
7.6418004035949707 -0.819877445697784424 15.954925537109375 123 147 149
2.06021261215209961 0.37412598729133606 22.0337886810302734 141 146 148
0.102012142539024353 1.51197636127471924 22.9678916931152344 122 116 104
0.898352563381195068 -0.083044394850730896 23.0674686431884766 73 66 74
6.69958972930908203 -1.71443212032318115 17.2268733978271484 98 102 101
-8.09821796417236328 -0.462245583534240723 34.7860984802246094 106 83 77
8.712066650390625 -1.04457271099090576 15.1245431900024414 95 92 83
7.49839639663696289 0.162916019558906555 14.7260847091674805 126 137 139
-5.45638418197631836 2.37458252906799316 28.3959484100341797 120 119 114
-16.6066780090332031 -5.32327413558959961 47.8981056213378906 110 107 92
4.04063653945922852 2.07748746871948242 17.6508140563964844 141 148 152
6.55714082717895508 1.29181897640228271 13.0934848785400391 106 111 104
-3.55504441261291504 -1.80929422378540039 30.4360427856445312 0 0 0
-0.968493402004241943 -0.597722411155700684 26.1602649688720703 59 60 57
-0.813336491584777832 -1.87469983100891113 26.8722953796386719 111 84 88
-0.899391114711761475 -1.23777425289154053 25.9042606353759766 122 114 117
2.02803802490234375 -2.09082889556884766 22.4081954956054688 111 125 125
1.63189148902893066 -1.04086220264434814 22.7716255187988281 100 102 99
0.330181241035461426 -1.16796708106994629 24.4864788055419922 134 123 131
1.12720167636871338 -0.367902785539627075 21.9718189239501953 87 81 77
6.47228384017944336 1.61298573017120361 12.4544229507446289 103 106 99
-2.1673429012298584 4.27235269546508789 24.2896976470947266 139 139 137
6.08047819137573242 1.60502421855926514 15.5896759033203125 0 0 0
2.8842008113861084 -0.714918017387390137 20.9092693328857422 78 88 85
5.33334541320800781 1.01213347911834717 16.6756153106689453 98 118 117
6.31134462356567383 0.288017362356185913 16.8694419860839844 92 98 96
6.64968776702880859 0.296965330839157104 15.7248592376708984 89 95 95
-1.54781222343444824 -0.493092775344848633 26.6653823852539062 143 126 135
2.95406961441040039 -0.693803548812866211 20.8470115661621094 127 141 138
4.05292272567749023 -2.32166934013366699 20.4546775817871094 94 100 103
1.08766031265258789 0.511147916316986084 22.0186405181884766 81 85 86
1.0687255859375 -0.242652848362922668 22.0032825469970703 96 98 93
6.40860652923583984 0.92536240816116333 15.722076416015625 156 168 158
7.1707000732421875 1.09854960441589355 13.7654685974121094 111 112 107
4.30094194412231445 -0.712698280811309814 18.5590915679931641 95 101 97
-22.4371109008789062 -1.32727885246276855 53.9641838073730469 142 155 148
6.8327031135559082 -0.333275377750396729 15.6808280944824219 89 91 88
6.8327031135559082 -0.333275377750396729 15.6808280944824219 89 91 88
4.51935720443725586 -0.167329877614974976 18.56585693359375 160 173 166
6.23821020126342773 0.0920673459768295288 16.6391658782958984 98 105 98
7.97148752212524414 0.105685874819755554 14.2622537612915039 117 122 116
6.20671510696411133 0.266730040311813354 16.7115859985351562 141 155 146
0.844851672649383545 -1.4562065601348877 23.9866561889648438 122 121 122
6.66738367080688477 0.137924134731292725 15.6112222671508789 85 92 98
-2.73031044006347656 4.95150566101074219 24.5037021636962891 150 151 148
1.3133695125579834 0.897978544235229492 22.1626968383789062 95 107 102
6.02652168273925781 1.8325427770614624 13.2079658508300781 85 82 73
6.38888263702392578 0.614016115665435791 15.4557762145996094 164 172 164
7.30800914764404297 0.903113782405853271 14.0617713928222656 125 135 132
7.08164358139038086 1.1944965124130249 14.1425228118896484 99 99 97
4.51906156539916992 -1.05842649936676025 18.9858455657958984 89 108 106
6.27789020538330078 1.70700502395629883 15.0161943435668945 105 109 110
-2.5691378116607666 2.40740346908569336 25.9933395385742188 147 159 165
7.35548639297485352 -0.80403292179107666 15.8666591644287109 97 102 96
1.62395250797271729 -1.23743784427642822 22.4450111389160156 136 141 144
3.39536118507385254 1.34501278400421143 19.2035694122314453 124 139 134
4.32558059692382812 3.11966633796691895 15.3445167541503906 129 126 115
6.55544137954711914 -0.314029216766357422 16.6161022186279297 90 102 100
7.73942136764526367 0.311976820230484009 13.9667806625366211 73 78 72
3.33784079551696777 1.65487468242645264 19.0253658294677734 94 100 95
7.93745946884155273 0.592892587184906006 14.1002836227416992 80 86 82
0.240957394242286682 -1.38627195358276367 24.4027423858642578 100 89 85
4.41306400299072266 3.22832846641540527 16.202606201171875 152 154 153
7.82536649703979492 1.30504691600799561 13.4427852630615234 128 139 133
3.34335851669311523 -1.52372074127197266 20.6560211181640625 117 135 149
2.32307124137878418 -4.29265260696411133 25.3704452514648438 92 94 91
7.82536649703979492 1.30504691600799561 13.4427852630615234 128 139 133
6.0743865966796875 -1.70282328128814697 19.3744716644287109 108 123 128
6.11016416549682617 -1.64521694183349609 19.0178337097167969 132 147 156
1.68297350406646729 3.59184765815734863 19.6272792816162109 124 128 129
6.03801918029785156 -1.48781943321228027 19.4717655181884766 111 127 134
-0.786165297031402588 -1.41387414932250977 26.3975925445556641 118 105 98
1.31839394569396973 -1.85981273651123047 23.3644924163818359 114 120 128
-0.788488686084747314 -0.873289644718170166 25.09912109375 0 0 0
5.62757539749145508 0.025240657851099968 17.1849918365478516 137 151 151
6.38833379745483398 1.19244372844696045 15.2152013778686523 126 127 122
-4.26150369644165039 -1.43833673000335693 30.4958419799804688 0 0 0
-0.628347098827362061 1.7093961238861084 23.9149742126464844 158 151 138
4.95836210250854492 1.56812357902526855 16.8586273193359375 112 125 119
6.36225748062133789 1.49921488761901855 15.3568859100341797 131 130 126
-50.5201492309570312 0.43012624979019165 90.5198516845703125 104 106 101
3.61446785926818848 2.51759505271911621 18.05328369140625 132 133 114
1.5994035005569458 -3.67699527740478516 23.4234809875488281 131 139 141
6.60175609588623047 -0.942436695098876953 17.0766162872314453 136 154 156
5.30449676513671875 0.104547448456287384 16.9012718200683594 0 0 0
5.55159664154052734 0.101212456822395325 17.1831417083740234 116 128 126
6.23421573638916016 0.275211215019226074 16.8326511383056641 144 153 152
-7.69596195220947266 2.74325680732727051 29.2652454376220703 116 114 116
3.14348530769348145 -0.714667558670043945 20.4315280914306641 126 143 150
7.77501106262207031 0.678174912929534912 14.0476036071777344 102 109 102
1.51036489009857178 1.66444015502929688 20.4191017150878906 108 110 96
1.40130484104156494 1.94203042984008789 19.8877029418945312 0 0 0
-11.8154573440551758 4.36034250259399414 34.953521728515625 135 137 132
3.71643424034118652 2.42916488647460938 17.9351558685302734 93 94 81
6.78017616271972656 2.08652138710021973 13.905120849609375 111 108 99
0.563561320304870605 -2.52649331092834473 24.2282562255859375 92 93 91
0.955707728862762451 0.598847508430480957 22.5982265472412109 141 144 137
4.8238067626953125 3.00340104103088379 16.7979545593261719 117 123 121
4.94331169128417969 1.70878493785858154 16.8239784240722656 119 128 125
6.98525905609130859 1.52139008045196533 13.9116315841674805 89 89 81
5.45617437362670898 -0.479033380746841431 17.397857666015625 113 119 109
7.92831945419311523 -0.730524718761444092 15.9834260940551758 119 121 120
7.85647869110107422 -0.220054313540458679 16.7920970916748047 130 144 144
2.08848214149475098 0.320187658071517944 21.0715255737304688 141 157 161
7.90836620330810547 0.432780295610427856 14.3879842758178711 83 88 81
7.51920509338378906 0.537703573703765869 13.7501535415649414 97 96 91
-0.955149650573730469 -2.05166935920715332 26.1437892913818359 140 121 125
-23.4770832061767578 -3.60480928421020508 56.5046577453613281 0 0 0
4.94454431533813477 0.71559673547744751 17.6165275573730469 136 153 161
-2.77005243301391602 -0.649098455905914307 27.5211391448974609 108 44 44
5.72781229019165039 -0.911401510238647461 18.3822860717773438 113 123 124
7.28832483291625977 -0.624445438385009766 16.2572364807128906 122 124 117
7.32135915756225586 0.812936544418334961 13.7509241104125977 90 91 87
6.58337593078613281 1.02513647079467773 14.7262334823608398 117 127 119
8.36574649810791016 -0.469945251941680908 13.9150381088256836 84 85 79
5.9901275634765625 0.0608528070151805878 17.6068248748779297 140 154 155
6.56093597412109375 -0.151048868894577026 15.9333906173706055 132 143 138
3.28142404556274414 -1.47657859325408936 22.0743236541748047 122 132 142
7.68528270721435547 -0.633079111576080322 15.8501338958740234 122 128 126
-1.04452037811279297 -2.37851047515869141 27.7580718994140625 0 0 0
6.22810983657836914 1.64561188220977783 14.9634971618652344 141 155 157
8.22053909301757812 -0.940359294414520264 15.3570594787597656 122 136 147
-0.952415227890014648 -2.00675845146179199 26.4077777862548828 124 106 116
1.35304522514343262 -1.71109843254089355 23.8229007720947266 107 121 118
1.37844562530517578 -0.996945440769195557 22.1800098419189453 163 167 167
3.0409085750579834 -0.142668336629867554 20.6064910888671875 136 155 162
5.09355354309082031 0.956050693988800049 17.1636028289794922 119 124 118
6.65113306045532227 -0.399656236171722412 16.4998321533203125 127 139 139
-3.16984653472900391 -4.04428243637084961 30.5009346008300781 126 139 148
7.13607215881347656 0.816569685935974121 13.3529453277587891 118 108 103
6.52329301834106445 -0.179521843791007996 16.6111526489257812 125 134 129
6.77958011627197266 0.0330214984714984894 15.5541591644287109 81 89 88
5.5852665901184082 0.198083996772766113 15.9734487533569336 129 137 139
6.34199953079223633 0.153707921504974365 16.6735191345214844 89 100 92
1.24024772644042969 0.995931327342987061 21.9823513031005859 123 130 122
0.53810584545135498 -1.58696913719177246 23.3186092376708984 119 109 108
5.26906490325927734 0.989724099636077881 16.4597454071044922 238 255 255
-0.885038554668426514 -2.65723609924316406 26.9486217498779297 127 129 126
3.37884759902954102 -1.7950749397277832 20.4396152496337891 109 124 128
7.75675249099731445 -0.152474954724311829 14.6790447235107422 136 144 139
1.45163059234619141 -1.26531994342803955 22.2940101623535156 144 158 161
7.08404445648193359 0.901157855987548828 14.4853925704956055 128 124 125
7.0045924186706543 -0.573242366313934326 15.9101686477661133 83 89 87
7.22946023941040039 0.611162304878234863 13.3133277893066406 111 117 110
7.19189643859863281 1.07446551322937012 14.0865211486816406 121 123 120
7.07721710205078125 1.32832372188568115 13.9657182693481445 88 80 75
2.88591861724853516 -0.745034158229827881 21.1184616088867188 89 92 90
8.2127838134765625 -0.246499121189117432 14.3909435272216797 97 93 97
8.33525943756103516 0.473885327577590942 14.3620567321777344 94 96 90
5.62798595428466797 1.17808794975280762 16.5783843994140625 87 83 74
4.78475093841552734 -0.879078269004821777 18.5287132263183594 92 105 104
4.61504793167114258 1.49191439151763916 17.5678863525390625 145 151 141
7.13699436187744141 0.0204839389771223068 15.8171567916870117 128 139 143
-2.83466291427612305 -3.02675127983093262 30.8816661834716797 109 61 56
8.0926513671875 0.206769660115242004 14.4498939514160156 82 83 85
-1.92581701278686523 -2.37752699851989746 29.2260665893554688 117 96 95
7.31514501571655273 -0.893150269985198975 15.9264192581176758 113 122 121
2.69878840446472168 0.427615165710449219 20.0031032562255859 120 130 131
1.5762627124786377 1.90842092037200928 22.3479328155517578 0 0 0
7.44452524185180664 -1.07706677913665771 16.0592327117919922 126 138 137
7.05611896514892578 -0.929427981376647949 16.0790328979492188 110 124 119
5.95838499069213867 -0.518348336219787598 16.6784152984619141 87 101 104
2.06989192962646484 -2.47084331512451172 22.7633285522460938 153 173 181
3.85876345634460449 2.35303449630737305 17.6515483856201172 138 144 136
5.08076238632202148 -1.35466885566711426 19.5368671417236328 107 115 118
-4.29371166229248047 -0.280794680118560791 29.1538143157958984 132 88 89
-0.585364103317260742 0.692793130874633789 25.3861598968505859 0 0 0
0.679175198078155518 2.47317028045654297 21.9866905212402344 146 152 142
0.00407501682639122009 1.83313953876495361 23.1915569305419922 78 80 74
-0.676033139228820801 -0.68672633171081543 24.4099044799804688 76 50 45
-0.896245121955871582 0.160428643226623535 25.3897018432617188 138 137 134
6.48849058151245117 -0.0370492078363895416 16.8780021667480469 144 166 180
3.47836041450500488 2.2684943675994873 19.1047401428222656 111 118 110
6.91064071655273438 -0.406786739826202393 16.8707332611083984 133 145 145
0.945005834102630615 -2.06033015251159668 25.9656352996826172 0 0 0
6.95658588409423828 0.879588186740875244 13.470794677734375 96 97 92
6.70249652862548828 1.30154907703399658 14.2122983932495117 150 157 150
6.69348907470703125 -0.34341779351234436 16.2522335052490234 136 147 151
2.48174691200256348 -0.82947009801864624 21.5341148376464844 144 163 167
6.64203643798828125 0.533889353275299072 16.2071170806884766 153 160 153
3.72038459777832031 1.30141603946685791 19.1112041473388672 100 103 91
6.38624858856201172 0.221367686986923218 16.5077152252197266 138 152 153
6.24014949798583984 -1.1746513843536377 17.7721271514892578 130 145 152
6.17513751983642578 0.401103794574737549 16.7145233154296875 98 104 99
3.12884116172790527 -0.687268853187561035 20.3655986785888672 104 115 112
8.46830844879150391 0.417159587144851685 14.6563482284545898 124 126 121
5.90010261535644531 0.496389091014862061 16.5027198791503906 106 108 103
3.53055524826049805 1.51905286312103271 18.2602005004882812 111 113 100
7.22771167755126953 -0.124680012464523315 15.4579458236694336 125 139 139
5.24213266372680664 0.682007491588592529 17.6438732147216797 106 113 108
3.94799637794494629 0.900438308715820312 19.5501823425292969 99 101 84
8.0332183837890625 -0.442368388175964355 13.9892911911010742 125 137 135
7.21652603149414062 -0.385336846113204956 16.7385463714599609 104 107 100
0.502196669578552246 -1.63155961036682129 25.9001026153564453 167 173 173
6.51873779296875 -0.233195900917053223 16.5051078796386719 113 120 112
-7.87612295150756836 -0.0631934329867362976 33.4986190795898438 97 87 78
5.18503713607788086 1.20258796215057373 16.5394611358642578 136 153 146
7.39904212951660156 0.289803773164749146 13.738865852355957 131 135 132
8.12474441528320312 0.736052632331848145 15.8578281402587891 129 131 129
6.92694902420043945 0.870106816291809082 15.3021163940429688 116 120 114
3.3084871768951416 1.27759206295013428 18.7658252716064453 150 155 151
1.35539603233337402 0.553828954696655273 20.7987308502197266 111 112 114
3.45646047592163086 -1.59461963176727295 21.19415283203125 87 98 102
5.58122014999389648 1.22157943248748779 16.7055778503417969 105 98 88
3.19463872909545898 -0.753991961479187012 20.3562488555908203 110 121 111
2.4779670238494873 -3.01524662971496582 23.2684307098388672 136 152 167
6.57114458084106445 0.113486707210540771 15.6788702011108398 211 224 233
6.36292123794555664 0.978233754634857178 15.4313230514526367 92 97 90
2.04300427436828613 -1.68019163608551025 22.075439453125 153 166 175
3.2478029727935791 -1.2369304895401001 21.1147575378417969 194 205 211
8.28109073638916016 -0.645659744739532471 14.6014070510864258 131 144 138
6.68507051467895508 -0.403164923191070557 16.5848217010498047 133 138 141
-11.2110509872436523 -1.32816290855407715 38.3257179260253906 150 141 126
6.99086141586303711 -0.534538924694061279 15.9213047027587891 89 93 95
2.81518816947937012 -0.675894975662231445 20.9589500427246094 79 85 78
6.9749598503112793 -0.498991906642913818 15.927393913269043 93 91 94
-0.730988442897796631 -1.13225603103637695 24.9925708770751953 103 78 73
3.04736185073852539 -0.660776376724243164 20.2741241455078125 117 127 135
6.48668575286865234 -0.0876368284225463867 16.6979579925537109 174 192 198
6.08171749114990234 0.366981327533721924 16.5945148468017578 151 158 143
2.99221634864807129 -1.44444596767425537 9.47403907775878906 116 116 126
3.609130859375 3.7289886474609375 18.8097553253173828 129 129 129
2.18218684196472168 -1.30660688877105713 21.8050193786621094 154 162 166
1.81788039207458496 -0.699979007244110107 21.6060256958007812 144 154 153
7.71789979934692383 -0.0971301868557929993 14.4993877410888672 139 148 145
5.95839500427246094 -0.423863351345062256 16.9005851745605469 131 149 149
6.39436149597167969 0.039148867130279541 16.785430908203125 136 148 144
6.0938410758972168 0.216823369264602661 16.4522037506103516 98 102 95
7.36442136764526367 0.655407249927520752 13.8283052444458008 142 144 141
7.34275293350219727 0.666501462459564209 13.6834220886230469 70 75 68
7.44142627716064453 0.615133166313171387 13.6031341552734375 92 92 84
7.42604494094848633 0.617159485816955566 13.5722713470458984 92 92 84
6.359039306640625 1.43776059150695801 14.8906497955322266 151 159 165
1.96826732158660889 -2.08722972869873047 22.0949497222900391 120 122 120
3.24247384071350098 -1.5133812427520752 21.3189563751220703 95 99 102
7.14817523956298828 -0.329673618078231812 16.11126708984375 131 134 127
7.88031148910522461 -0.132494792342185974 14.7354059219360352 109 110 104
6.1748957633972168 0.401331514120101929 16.7145538330078125 87 89 84
0.997780740261077881 -1.85239684581756592 23.4575328826904297 144 154 161
-0.961452186107635498 -2.17919015884399414 27.8525352478027344 103 83 80
7.50565433502197266 -1.00232517719268799 15.8258228302001953 108 117 113
2.09893250465393066 -1.17282223701477051 22.0298500061035156 125 126 131
1.22891533374786377 -1.49749541282653809 21.4609279632568359 100 113 121
-6.59895133972167969 1.05866336822509766 30.9966163635253906 94 94 92
4.16228628158569336 -0.605158388614654541 20.4134159088134766 141 153 146
1.40887558460235596 -2.23985815048217773 23.1473426818847656 125 132 130
0.516195714473724365 -1.44293379783630371 12.2477083206176758 122 121 117
5.30233478546142578 -0.019694129005074501 17.6438560485839844 143 161 156
0.115135855972766876 1.22893738746643066 23.2978248596191406 112 110 111
4.64070415496826172 0.82870781421661377 18.0614871978759766 137 152 159
-0.000423384219175204635 1.54931390285491943 23.6292629241943359 112 102 98
-0.00350373773835599422 1.55216991901397705 23.6556396484375 112 102 98
-0.901335358619689941 -0.686109721660614014 18.9541091918945312 130 113 106
5.57316160202026367 1.31025981903076172 16.4027729034423828 131 133 132
1.80927789211273193 -1.89975583553314209 22.3291034698486328 122 123 125
0.246282383799552917 0.152375534176826477 24.8837966918945312 129 142 151
2.3163914680480957 -1.27130615711212158 21.7608928680419922 125 122 132
4.24168252944946289 -0.950015544891357422 20.0350570678710938 146 161 157
0.582655787467956543 -0.131129533052444458 23.7528610229492188 126 118 115
5.03585386276245117 1.28673505783081055 17.1297092437744141 119 124 117
4.95363616943359375 1.02133917808532715 17.2500896453857422 143 157 154
-0.939438045024871826 -0.37736925482749939 25.1340541839599609 127 125 126
4.45817708969116211 -0.98253554105758667 19.5039043426513672 109 114 110
5.79466581344604492 0.55795443058013916 15.9029521942138672 104 105 100
3.17158293724060059 1.95670819282531738 18.8271312713623047 144 160 150
0.436453163623809814 -1.1647031307220459 23.8764057159423828 127 128 130
-12.036067008972168 -5.06862783432006836 42.2965774536132812 99 98 86
5.20063447952270508 1.29706311225891113 17.9455375671386719 117 123 112
1.16361355781555176 0.117472939193248749 16.9704990386962891 0 0 0
7.56740093231201172 -0.774179816246032715 15.7120761871337891 137 153 152
5.68506669998168945 1.79078936576843262 16.1296596527099609 139 154 149
6.44101810455322266 1.11750173568725586 15.0885648727416992 129 134 132
4.68527078628540039 0.109318338334560394 18.2417087554931641 131 150 152
2.86993312835693359 -1.14189660549163818 21.4629173278808594 116 126 125
1.45142078399658203 -1.08774268627166748 22.3150405883789062 108 111 120
2.76531004905700684 -0.677181661128997803 21.4102687835693359 134 144 136
