ply
format ascii 1.0
element vertex 657
property float x
property float y
property float z
property uchar red
property uchar green
property uchar blue
end_header
-2.09902167320251465 0.427915871143341064 5.74350976943969727 149 111 102
1.77075576782226562 -0.513055860996246338 6.48509597778320312 105 59 44
-2.89579272270202637 -0.0300626587122678757 5.72541999816894531 127 79 70
-2.49829840660095215 0.373221755027770996 5.72693634033203125 122 98 88
-1.99047231674194336 0.371416449546813965 6.33176994323730469 169 133 118
-2.59705281257629395 -0.337995141744613647 5.73044204711914062 162 139 131
-3.65072274208068848 -0.36774677038192749 6.31682777404785156 177 125 102
1.16937971115112305 -0.510463356971740723 7.73765468597412109 206 190 177
-3.76321816444396973 -0.173248291015625 5.73119115829467773 133 110 105
-2.00380897521972656 -0.111252091825008392 5.95117282867431641 117 68 54
1.48148643970489502 -1.44671416282653809 5.71957635879516602 173 135 125
0.896553516387939453 2.48736929893493652 7.77908420562744141 184 167 157
-2.62988185882568359 0.281964033842086792 5.98215103149414062 110 86 82
1.94758999347686768 -0.534071266651153564 5.72614431381225586 187 161 149
-2.62988185882568359 0.281964033842086792 5.98215103149414062 110 86 82
2.04144930839538574 -0.546898305416107178 7.67175149917602539 126 92 83
-2.62641096115112305 0.782262146472930908 5.7359919548034668 147 109 101
2.49316215515136719 -0.513635039329528809 7.7329258918762207 195 171 159
-5.42424249649047852 0.314591884613037109 7.41984891891479492 196 182 173
-2.00847339630126953 0.72480618953704834 5.93795871734619141 111 64 56
0.873949885368347168 -1.66018354892730713 6.77067899703979492 153 96 78
-2.07894325256347656 -0.0733949095010757446 5.7054753303527832 121 83 80
-5.92302131652832031 0.842939972877502441 8.12306308746337891 200 193 185
-3.41681218147277832 0.76392596960067749 5.74043464660644531 139 94 77
-0.431577682495117188 2.3394322395324707 7.77927446365356445 188 172 157
1.24914252758026123 -0.509225070476531982 5.89739656448364258 95 56 41
-5.78471517562866211 2.49246978759765625 7.77521467208862305 183 167 154
-4.82673358917236328 1.52825427055358887 7.752960205078125 206 197 191
5.20640897750854492 1.82533872127532959 7.75377798080444336 207 194 185
1.89000940322875977 -0.497225791215896606 5.77514743804931641 141 95 80
-6.14259004592895508 2.41371250152587891 7.77613925933837891 205 196 188
0.549092769622802734 2.10546207427978516 7.76987457275390625 207 194 186
-2.87261438369750977 2.23798370361328125 7.77565622329711914 187 171 157
4.89055299758911133 0.767967402935028076 7.76118135452270508 208 195 187
1.40313363075256348 -0.524446427822113037 6.54491853713989258 146 114 103
0.221975445747375488 3.34859108924865723 7.76950597763061523 208 195 187
-2.60157895088195801 1.91885924339294434 7.77438545227050781 207 199 196
-5.45661163330078125 0.294045478105545044 7.77932643890380859 207 201 189
0.548804283142089844 2.10578322410583496 7.76895236968994141 207 194 186
1.31066238880157471 -0.520090639591217041 6.3869471549987793 130 85 79
0.873179614543914795 -1.40247595310211182 7.5002741813659668 112 61 44
1.89579474925994873 -0.579541563987731934 5.72980785369873047 164 143 134
1.76785969734191895 3.2516632080078125 7.78057050704956055 208 196 186
-2.00491976737976074 0.509046077728271484 5.86422252655029297 120 81 70
-3.57564759254455566 -0.331486672163009644 5.72831201553344727 112 83 75
3.79629945755004883 -0.450603604316711426 7.74872922897338867 210 197 188
-4.76592445373535156 2.26069450378417969 7.77494430541992188 206 196 187
2.33243560791015625 2.01975584030151367 7.77008628845214844 211 195 182
1.62990272045135498 -0.754716575145721436 5.73425388336181641 135 104 96
4.14782047271728516 3.05211257934570312 7.77058935165405273 205 190 181
0.876816034317016602 -0.80113297700881958 6.49756860733032227 188 134 106
-1.99405527114868164 -0.0808014199137687683 6.37215757369995117 121 59 44
1.97146761417388916 -1.00007128715515137 5.71476078033447266 181 160 154
6.33611059188842773 2.0149846076965332 7.76203012466430664 202 190 176
1.36648666858673096 -0.500687003135681152 5.78441333770751953 81 34 24
3.98680639266967773 2.97313833236694336 7.78271961212158203 204 186 174
0.873764574527740479 -0.923830747604370117 7.53926563262939453 169 107 90
6.33611059188842773 2.0149846076965332 7.76203012466430664 202 190 176
2.74395513534545898 2.03750848770141602 7.77480602264404297 210 193 183
4.18948984146118164 2.04578304290771484 7.77033662796020508 209 197 185
1.07252180576324463 -0.761562347412109375 5.73124027252197266 149 114 96
3.79629945755004883 -0.450603604316711426 7.74872922897338867 210 197 188
-2.00925159454345703 -0.0841628089547157288 6.42696332931518555 121 59 44
0.872472703456878662 -0.9362068772315979 7.2509617805480957 129 73 56
4.9636082649230957 -0.0501698330044746399 7.74406719207763672 204 190 179
-2.16972827911376953 -0.167775958776473999 5.73238134384155273 113 78 74
-2.17393231391906738 1.480460524559021 7.77061367034912109 189 170 163
1.67287266254425049 -0.506552398204803467 5.91022062301635742 139 96 80
0.875284492969512939 -1.57159364223480225 6.40722894668579102 163 116 105
4.86393308639526367 -2.08417701721191406 7.65384197235107422 205 191 180
0.897077977657318115 -0.700251519680023193 7.40823507308959961 158 100 73
1.6414036750793457 0.0370786450803279877 7.74565458297729492 209 191 177
2.53519058227539062 -0.612360835075378418 5.72722673416137695 169 134 118
2.16456031799316406 1.33055925369262695 7.76676273345947266 209 195 183
2.84947061538696289 -0.529624283313751221 7.09582853317260742 108 58 50
0.950190842151641846 -0.407074928283691406 7.74782180786132812 186 162 150
-1.98862349987030029 0.871047377586364746 6.13975811004638672 70 40 32
2.09318065643310547 -0.524228751659393311 6.78646230697631836 156 116 104
-5.05888175964355469 1.91314029693603516 7.77909183502197266 188 171 163
-3.82417631149291992 0.419728785753250122 5.73601293563842773 168 133 119
1.54065859317779541 -0.512279808521270752 6.14541387557983398 88 38 31
-1.9773707389831543 -0.151513531804084778 6.74363946914672852 123 78 73
1.94813787937164307 -0.534188628196716309 5.72699928283691406 179 155 140
0.403009951114654541 2.06035041809082031 7.77050685882568359 185 167 158
2.76759004592895508 -0.522618889808654785 6.4265284538269043 109 66 54
-1.96533703804016113 0.20562472939491272 7.68816852569580078 201 185 172
-0.974267482757568359 2.3998570442199707 7.77343893051147461 183 171 159
1.26265311241149902 -0.574309825897216797 5.72763442993164062 121 85 75
0.869941592216491699 -1.43463802337646484 7.32158565521240234 177 131 115
0.866754829883575439 -1.47377026081085205 7.3013463020324707 103 57 42
5.75144624710083008 1.12125039100646973 7.7660069465637207 205 189 176
0.87332230806350708 -1.2210991382598877 6.65291833877563477 160 115 96
2.46520495414733887 -0.592286109924316406 5.72640371322631836 123 83 75
5.33642053604125977 2.17958521842956543 7.77412080764770508 207 195 183
1.65047073364257812 -0.569833934307098389 5.72720956802368164 204 186 174
5.36571741104125977 -0.457771003246307373 7.75478124618530273 204 193 179
-2.64235520362854004 0.61379474401473999 5.73851394653320312 178 145 138
-2.57474637031555176 0.472842365503311157 5.73821926116943359 112 75 66
-2.01337862014770508 -0.225940689444541931 6.40889406204223633 128 84 69
1.71816873550415039 -0.573547303676605225 5.73322725296020508 128 100 89
1.17899727821350098 -1.38402664661407471 5.71713638305664062 127 93 85
-2.01611781120300293 -0.0338359624147415161 5.76500415802001953 170 141 132
-1.99675083160400391 0.730734407901763916 5.77956867218017578 88 45 36
-1.99949526786804199 0.517463207244873047 7.22323369979858398 185 157 143
-1.99846124649047852 0.517598807811737061 7.21820878982543945 190 159 141
-1.98516666889190674 0.56398475170135498 7.57934951782226562 117 68 62
-3.55256509780883789 0.216430887579917908 5.72731208801269531 195 172 158
-3.23169159889221191 0.0221851356327533722 5.74099111557006836 141 107 97
-2.00779557228088379 0.13764992356300354 6.16940164566040039 192 167 163
-2.00235605239868164 -0.291082113981246948 6.8599553108215332 134 80 60
-3.17388391494750977 0.374019712209701538 5.74101924896240234 165 123 111
-2.01550006866455078 -0.289039134979248047 6.15269660949707031 169 132 116
-2.46395301818847656 -0.356861025094985962 5.72411584854125977 94 71 67
-2.00702095031738281 0.763749480247497559 5.94817781448364258 131 97 87
2.09665989875793457 -0.617997705936431885 5.73187923431396484 131 87 78
3.05413460731506348 2.27768325805664062 7.77280759811401367 205 195 183
2.65656805038452148 -0.566847920417785645 5.725677490234375 108 74 65
-5.82743978500366211 2.6067650318145752 7.77453374862670898 203 193 183
2.12322902679443359 -0.540659666061401367 5.72159910202026367 123 85 76
0.854849398136138916 -1.02865254878997803 6.98160457611083984 143 92 63
-5.9345250129699707 2.13584065437316895 7.76576566696166992 205 196 187
-1.99757242202758789 0.774455070495605469 6.74160194396972656 151 131 124
-1.99474179744720459 0.587318181991577148 6.52221202850341797 88 49 40
1.76024436950683594 -0.520761311054229736 5.97334957122802734 109 56 42
1.51089179515838623 -0.863684654235839844 5.73243093490600586 162 115 105
2.12578725814819336 -0.591241717338562012 5.72614955902099609 173 134 125
-2.00024032592773438 0.367307960987091064 6.27787637710571289 103 71 54
1.56882846355438232 -0.520370006561279297 5.7268061637878418 193 166 145
2.84826350212097168 -0.528567790985107422 7.5342254638671875 123 79 66
-2.3621518611907959 -0.353954017162322998 5.72993230819702148 196 173 167
-3.9642181396484375 0.62012946605682373 5.74466896057128906 159 126 107
-3.49995970726013184 -0.328227490186691284 5.73030233383178711 195 176 166
-1.99764347076416016 -0.318356961011886597 6.00309419631958008 115 76 60
-1.9928971529006958 0.110823467373847961 7.63268375396728516 106 56 41
-2.00638914108276367 0.322057336568832397 5.94234228134155273 163 137 124
-2.00209164619445801 -0.117264494299888611 6.14403247833251953 113 66 48
-4.56338071823120117 0.308037549257278442 7.72351932525634766 191 177 168
-2.00590991973876953 0.571565628051757812 7.48632431030273438 146 102 89
-3.5800178050994873 0.483447521924972534 5.73761558532714844 184 147 129
-3.23169159889221191 0.0221851356327533722 5.74099111557006836 141 107 97
-2.95383524894714355 0.614055752754211426 5.73994159698486328 116 87 77
2.5662229061126709 -0.524061322212219238 6.69921016693115234 91 58 48
-2.82880234718322754 0.702704727649688721 5.73778438568115234 180 151 143
-2.84751677513122559 -0.167099103331565857 5.72778034210205078 115 81 71
0.906503736972808838 -0.508658885955810547 5.80073785781860352 80 40 32
3.34536981582641602 -0.686308979988098145 7.48898220062255859 211 197 185
1.51807200908660889 -0.58444678783416748 5.7270350456237793 139 105 95
1.49456238746643066 -0.468979090452194214 7.72427749633789062 202 184 174
2.49517202377319336 -0.5649985671043396 5.72811365127563477 170 136 124
0.948669970035552979 -0.60019218921661377 5.73203563690185547 185 170 161
2.19881963729858398 -0.535475671291351318 5.72806644439697266 149 108 101
1.8585888147354126 -0.519698917865753174 6.23160123825073242 106 55 40
0.868258416652679443 -1.03149807453155518 6.13666772842407227 143 84 68
1.15112805366516113 -0.520908832550048828 5.72927284240722656 184 154 147
5.79803037643432617 1.74212050437927246 7.76579427719116211 207 193 182
0.869051814079284668 -1.63682472705841064 6.00389242172241211 110 61 47
1.91338860988616943 -0.520727932453155518 5.72751951217651367 180 153 135
0.872560441493988037 -0.682004153728485107 5.91393661499023438 145 89 67
0.868124186992645264 -1.06825363636016846 7.25733852386474609 129 76 55
-2.78391575813293457 -0.360170662403106689 5.72842884063720703 121 91 89
-2.39679145812988281 -0.360068351030349731 5.73012399673461914 100 78 73
-5.48648214340209961 2.53646183013916016 7.77205801010131836 178 162 149
-3.54181218147277832 -0.354278206825256348 5.72993898391723633 186 159 152
-2.86023092269897461 -0.370968133211135864 6.57149839401245117 185 150 131
1.06599879264831543 -0.544720768928527832 7.64960193634033203 153 130 124
0.869863212108612061 -1.31979179382324219 6.65546226501464844 176 121 101
-1.9919583797454834 -0.278109878301620483 5.74026966094970703 163 112 100
1.56645548343658447 -0.526573240756988525 6.65519332885742188 73 29 26
0.865756452083587646 -1.55013048648834229 5.78735160827636719 158 111 95
-2.0020747184753418 -0.34716331958770752 6.74935626983642578 198 158 130
-2.0005793571472168 0.271316945552825928 6.59517431259155273 174 146 125
-1.99575185775756836 -0.325256645679473877 6.63566780090332031 130 72 51
2.03001785278320312 -0.506559252738952637 5.75971651077270508 116 63 47
-2.00066661834716797 -0.0156827382743358612 6.35153675079345703 181 148 130
1.68924081325531006 0.260992348194122314 7.75551080703735352 188 162 147
-3.37850642204284668 0.700173437595367432 5.73935937881469727 134 88 72
-3.16469240188598633 0.106672622263431549 5.71991252899169922 124 83 75
4.06628751754760742 0.939853668212890625 7.76204919815063477 185 168 158
-1.99549531936645508 0.278652071952819824 6.80100440979003906 174 153 138
-3.16803717613220215 0.786156177520751953 5.73645687103271484 179 140 125
-4.5018162727355957 2.01556515693664551 7.78538751602172852 206 196 187
-2.00382447242736816 0.415278375148773193 7.39100313186645508 101 70 50
-1.97800147533416748 0.421419471502304077 6.20226001739501953 127 76 65
1.48509407043457031 -0.718283593654632568 5.78683853149414062 159 137 127
-2.08950352668762207 -0.371238201856613159 5.77746152877807617 97 54 37
-2.00190520286560059 0.473657876253128052 6.20194244384765625 128 82 71
-3.61331391334533691 0.48256567120552063 5.73887205123901367 142 106 90
0.815608382225036621 -0.780879557132720947 6.27942514419555664 150 91 75
-3.94191956520080566 0.890012860298156738 5.74532175064086914 171 135 123
1.12857437133789062 -1.52533388137817383 5.72550535202026367 152 106 89
-1.99975967407226562 -0.312351137399673462 6.33602571487426758 185 149 140
1.74877429008483887 2.17658019065856934 7.77272605895996094 202 187 177
1.48713266849517822 -0.516311883926391602 6.16427040100097656 177 148 138
6.40436744689941406 2.39579224586486816 7.76257801055908203 205 196 187
2.7372438907623291 -0.529152214527130127 7.32069778442382812 192 173 161
2.44629955291748047 -0.521937906742095947 6.36356353759765625 100 56 40
-2.46047449111938477 0.211841270327568054 5.73456001281738281 115 86 82
-2.27704024314880371 -0.384287625551223755 7.03724813461303711 160 113 97
-2.00977897644042969 0.137034431099891663 6.64127826690673828 158 107 97
-2.32485365867614746 0.105019532144069672 5.73469352722167969 94 66 62
-1.9871070384979248 0.362074047327041626 6.02608108520507812 141 114 102
-1.99438703060150146 -0.045587591826915741 7.02042961120605469 116 68 53
2.01035022735595703 -0.528654515743255615 6.87065982818603516 97 52 41
-1.99451518058776855 -0.212259560823440552 6.78116655349731445 192 146 131
-7.73955249786376953 0.617306351661682129 7.77478981018066406 187 172 161
-2.0167076587677002 -0.286120086908340454 5.88241672515869141 143 90 77
-3.44457197189331055 0.378943443298339844 5.74586391448974609 146 110 94
-3.03747653961181641 -0.360547751188278198 5.73393058776855469 153 134 127
0.992852270603179932 -0.53721088171005249 5.72543430328369141 143 110 101
2.18375062942504883 -0.595680296421051025 5.72610139846801758 121 84 75
0.865367114543914795 -1.13186252117156982 6.88152503967285156 162 128 114
-2.02738547325134277 0.134871140122413635 6.69326686859130859 158 107 97
-2.00347733497619629 0.589688897132873535 6.87742042541503906 136 92 76
-1.99704849720001221 0.367162466049194336 6.27023696899414062 103 71 54
0.868025898933410645 -1.20638704299926758 6.06419610977172852 158 111 87
2.22495150566101074 -0.890826582908630371 5.73225021362304688 125 92 82
-1.99368250370025635 0.687996208667755127 6.52597332000732422 145 123 113
2.73718047142028809 -0.522640705108642578 6.73045778274536133 105 68 52
0.870208323001861572 -0.862716019153594971 5.76641416549682617 188 144 124
-2.07045435905456543 0.430708259344100952 5.72712182998657227 119 75 68
0.952398478984832764 -0.941277265548706055 5.7309870719909668 134 99 84
-1.99600577354431152 0.591470301151275635 5.98168182373046875 88 54 45
-2.01084709167480469 0.146352246403694153 7.2465510368347168 100 49 35
-2.02788949012756348 -0.083819366991519928 5.73326301574707031 109 73 67
-3.38854837417602539 0.530399322509765625 5.74055385589599609 134 97 79
-3.17258763313293457 0.375509887933731079 5.73734188079833984 165 123 111
-1.99244809150695801 0.361872166395187378 6.1579289436340332 168 139 131
-1.99911844730377197 0.62813258171081543 5.96523380279541016 170 140 132
4.02789974212646484 3.39111757278442383 7.78649663925170898 187 166 149
-3.3951268196105957 0.268245071172714233 5.73201131820678711 135 102 89
2.12224817276000977 -0.5110817551612854 6.21548795700073242 178 133 114
-2.8050391674041748 0.895008087158203125 5.73533535003662109 167 138 125
-4.40075540542602539 3.10595893859863281 7.80204200744628906 204 194 185
-3.54288077354431152 -0.348283857107162476 5.86095952987670898 150 97 73
-5.26729965209960938 0.244886845350265503 7.18921899795532227 0 0 0
4.19616937637329102 -1.28056645393371582 8.00351047515869141 203 193 181
2.09938216209411621 1.56326186656951904 7.76686668395996094 190 162 148
1.74039626121520996 -0.517621099948883057 6.37561607360839844 160 115 100
-5.84945869445800781 0.10573122650384903 8.07283878326416016 203 195 184
-1.99829685688018799 -0.0579101294279098511 6.86114645004272461 115 67 55
-1.86526083946228027 -0.425104022026062012 6.69733858108520508 196 183 174
0.870313048362731934 -1.43606913089752197 7.55544710159301758 148 92 80
-0.361999720335006714 2.10277438163757324 7.76854610443115234 207 197 188
3.16619658470153809 2.14687681198120117 7.77001333236694336 189 171 159
3.73784184455871582 2.31774663925170898 7.77411699295043945 207 195 183
-3.8467414379119873 -0.0607316978275775909 5.73208713531494141 132 100 92
-2.00173163414001465 0.59001314640045166 6.87581396102905273 136 92 76
3.31681084632873535 1.96632254123687744 7.76422643661499023 188 162 144
3.16525959968566895 2.14632916450500488 7.76972341537475586 189 171 159
-2.28992891311645508 2.30845236778259277 7.77376747131347656 207 198 193
2.18533587455749512 -0.52040398120880127 6.58802413940429688 109 64 47
-3.94719195365905762 0.93765026330947876 5.78247547149658203 196 186 174
-2.00780606269836426 0.364289939403533936 6.29485130310058594 100 65 53
6.70357847213745117 1.8497844934463501 7.72731447219848633 206 193 184
-2.0365300178527832 0.863323390483856201 7.75336694717407227 96 46 41
3.93085694313049316 2.63256287574768066 7.77479314804077148 205 191 178
-2.83005547523498535 -0.370624899864196777 7.11054515838623047 112 63 48
-0.882983982563018799 2.47043728828430176 7.77332830429077148 186 173 165
1.68782949447631836 2.23330903053283691 7.77415800094604492 207 195 183
0.865002751350402832 -0.609200954437255859 5.92590951919555664 172 111 78
-5.69345569610595703 2.21906399726867676 7.76113271713256836 206 195 189
6.10464096069335938 2.2133643627166748 7.7623448371887207 204 192 178
0.213211804628372192 2.72790169715881348 7.7786860466003418 207 193 184
2.202239990234375 1.88156890869140625 7.76963043212890625 190 164 147
-0.142565429210662842 2.20495152473449707 7.77194976806640625 208 196 184
4.6677703857421875 2.20831990242004395 7.76819515228271484 204 194 184
2.52300095558166504 -0.554849147796630859 5.72864437103271484 161 129 116
-2.02445292472839355 -0.310862630605697632 6.16225004196166992 162 114 98
1.86770498752593994 2.58922934532165527 7.77836942672729492 207 197 187
0.877706706523895264 -0.671541929244995117 6.90862274169921875 148 84 59
1.85424888134002686 -0.765506148338317871 5.7082524299621582 119 85 76
0.87732243537902832 -0.774032711982727051 6.81027841567993164 150 105 83
-4.34123086929321289 0.250946044921875 7.32981348037719727 205 192 184
0.909091293811798096 -0.67100834846496582 5.71789407730102539 144 108 89
-2.58194136619567871 -0.32461056113243103 5.73531103134155273 136 113 105
1.85636472702026367 -0.518244504928588867 6.22609043121337891 104 55 38
1.18372642993927002 -0.528612792491912842 7.38981294631958008 161 133 130
2.73607134819030762 -0.525077760219573975 6.4239501953125 110 71 58
0.869290173053741455 -0.669299483299255371 5.88136100769042969 146 92 66
2.77905392646789551 1.96243917942047119 7.77642488479614258 185 167 153
-2.61869382858276367 -0.386125564575195312 7.18406200408935547 114 71 54
2.5112299919128418 -0.515655338764190674 7.24532604217529297 130 100 89
2.85112857818603516 -0.524338603019714355 7.32163810729980469 116 76 69
-3.86574912071228027 0.159994542598724365 5.73324966430664062 123 89 77
-2.00021934509277344 0.310785204172134399 6.47608375549316406 190 157 138
5.78194427490234375 3.02711987495422363 7.80249500274658203 182 160 139
-2.12963581085205078 0.296373337507247925 5.73318576812744141 113 78 72
-3.8156425952911377 -0.27059173583984375 5.70190143585205078 116 87 77
1.18851673603057861 -0.505042135715484619 6.744720458984375 100 66 59
-1.99420595169067383 0.468300372362136841 5.92509698867797852 95 55 43
2.67257428169250488 -0.531141996383666992 5.72984027862548828 180 153 142
2.67223834991455078 -0.529191136360168457 5.72794008255004883 180 153 142
-1.99916565418243408 0.517701148986816406 7.22139930725097656 190 159 141
0.873205721378326416 -1.74550938606262207 5.96761322021484375 167 110 93
-2.64235520362854004 0.61379474401473999 5.73851394653320312 178 145 138
0.867259085178375244 -0.670102417469024658 5.87614536285400391 146 92 66
0.934589505195617676 -1.63588428497314453 6.35413265228271484 124 75 61
2.72051882743835449 -0.54244619607925415 5.70700502395629883 117 88 82
2.90077900886535645 -0.523014366626739502 5.72957611083984375 115 89 72
0.894173681735992432 -0.540194094181060791 7.72704219818115234 95 62 55
-3.71640419960021973 -0.386167705059051514 6.38633155822753906 155 101 80
0.871106863021850586 -1.23595452308654785 5.803436279296875 164 108 85
2.71191143989562988 -0.520786881446838379 5.73083114624023438 177 147 137
-3.0093693733215332 0.664156258106231689 5.73999214172363281 169 136 124
-3.29992294311523438 0.728695809841156006 5.74027633666992188 169 131 113
0.870876193046569824 -1.10640263557434082 6.10641956329345703 163 103 75
-2.00027060508728027 -0.00142139464151114225 6.65844535827636719 191 162 144
-3.9642181396484375 0.62012946605682373 5.74466896057128906 159 126 107
2.08610820770263672 -0.541389822959899902 7.69387435913085938 87 57 48
1.44823348522186279 -0.523072183132171631 6.65978574752807617 73 43 32
2.18402409553527832 -0.520819544792175293 6.59015798568725586 102 61 46
2.53400778770446777 -0.519885599613189697 5.81318378448486328 116 82 72
2.380401611328125 -0.542065858840942383 5.76458501815795898 128 84 76
0.869764387607574463 -1.1275174617767334 6.82267856597900391 184 157 146
2.01076745986938477 -0.514437437057495117 6.17631721496582031 107 66 48
0.895045936107635498 -1.3627471923828125 7.02320289611816406 132 75 55
-2.88829922676086426 -0.00812837015837430954 5.73128461837768555 126 79 70
-3.97151303291320801 -0.374944567680358887 5.88846302032470703 171 119 93
0.883953094482421875 -1.01850652694702148 7.65771722793579102 120 68 54
1.76364922523498535 -1.10149121284484863 5.71642923355102539 131 94 85
-1.9905087947845459 0.691833198070526123 7.34762716293334961 139 95 86
1.43034183979034424 -0.505239665508270264 5.72455501556396484 106 65 53
1.06783580780029297 -0.523087024688720703 7.23220348358154297 70 45 38
0.867473721504211426 -1.41383814811706543 6.4759516716003418 151 100 81
1.81182646751403809 -0.511085808277130127 5.75125408172607422 102 60 44
-2.19569206237792969 -0.25477677583694458 5.7335505485534668 143 106 98
-3.60555481910705566 -0.370350748300552368 6.62085962295532227 146 82 56
1.39920401573181152 -0.520694851875305176 6.52143192291259766 141 110 100
2.08924770355224609 -0.520003914833068848 6.66771602630615234 135 93 79
-3.46753787994384766 -0.31709703803062439 5.72658777236938477 148 130 122
1.91747045516967773 -0.542334854602813721 7.74464035034179688 100 68 57
0.871579349040985107 -0.898944854736328125 6.86471366882324219 179 125 102
0.913147985935211182 -0.542024493217468262 5.7402644157409668 115 89 84
-2.02206540107727051 -0.400354295969009399 7.02794790267944336 200 184 171
-2.00288295745849609 -0.0300477873533964157 6.59726715087890625 131 91 76
-1.99858319759368896 0.266715884208679199 6.03214788436889648 142 110 98
0.894886434078216553 -1.73819267749786377 7.02681446075439453 132 77 58
-2.06717443466186523 0.289342224597930908 5.7381134033203125 116 79 71
0.886060953140258789 -0.51655346155166626 6.17909479141235352 86 47 30
-1.997367262840271 0.299061477184295654 5.83113861083984375 101 70 52
-2.00236034393310547 0.503505527973175049 6.57136774063110352 152 106 92
-1.99599838256835938 0.627983450889587402 5.95442581176757812 174 145 137
-1.99774670600891113 0.735502541065216064 6.89176845550537109 160 130 122
-1.99515283107757568 0.0933969020843505859 6.50821590423583984 188 149 134
-1.9957507848739624 0.104700446128845215 5.8397979736328125 118 80 68
-1.99671268463134766 0.0928734093904495239 6.51460027694702148 188 149 134
-2.00906038284301758 0.527299940586090088 7.46126890182495117 107 62 46
2.64040923118591309 -0.532551884651184082 5.7257685661315918 127 89 80
-1.99782443046569824 0.775510609149932861 6.46288728713989258 170 145 140
-2.00549554824829102 0.652522027492523193 7.000091552734375 142 98 85
-1.99356389045715332 -0.195395529270172119 7.66129636764526367 106 71 62
-1.99527370929718018 0.159474834799766541 7.54779291152954102 121 87 68
-2.00273370742797852 0.166757687926292419 6.44237995147705078 151 105 92
-3.096466064453125 0.557597219944000244 5.73997592926025391 133 85 71
-1.99247586727142334 0.00339804263785481453 6.34868383407592773 127 98 80
0.86137080192565918 -1.66775095462799072 6.40736246109008789 139 86 70
-1.99958062171936035 -0.0469311326742172241 6.12427711486816406 169 123 107
-8.50356006622314453 -2.88999390602111816 7.73135089874267578 206 196 186
-1.99986517429351807 -0.115334086120128632 6.86109161376953125 186 153 142
-3.47594165802001953 0.728620946407318115 5.73010396957397461 156 129 118
-2.73044490814208984 0.506805419921875 5.74037933349609375 121 97 92
-3.05367374420166016 0.239688724279403687 5.73553180694580078 142 110 95
1.41118872165679932 -0.531002581119537354 5.72737264633178711 153 120 110
-2.03921246528625488 0.0304164942353963852 6.15889167785644531 115 56 42
1.94441461563110352 -0.524116396903991699 6.96904945373535156 158 110 98
-4.03721952438354492 0.480820119380950928 5.73913812637329102 134 108 97
1.991951584815979 -0.51818317174911499 5.99967718124389648 153 110 91
2.63715076446533203 -0.545290946960449219 5.97359609603881836 111 76 60
-3.19180393218994141 0.1503925621509552 5.73910808563232422 129 89 80
5.22773408889770508 -0.319502860307693481 7.74227333068847656 203 188 178
1.67778456211090088 -0.51610177755355835 6.20956802368164062 178 146 130
0.855977952480316162 -1.56690025329589844 7.00524711608886719 147 98 82
1.30097675323486328 -1.32227146625518799 5.71838760375976562 174 137 121
1.63598799705505371 2.47127556800842285 7.77534103393554688 205 193 181
-3.49378538131713867 -0.11491992324590683 5.73116445541381836 116 88 76
1.71169757843017578 -0.494910001754760742 7.23278665542602539 87 52 46
2.94021964073181152 -0.51816481351852417 7.12833261489868164 200 178 165
0.864808320999145508 -1.73758137226104736 6.96712636947631836 132 77 58
2.01079607009887695 -1.05520999431610107 5.71655797958374023 151 130 120
0.871148228645324707 -0.884363532066345215 6.29862022399902344 144 79 57
0.865466058254241943 -0.760386526584625244 6.69675016403198242 151 105 84
1.35308420658111572 -0.604511141777038574 5.25489330291748047 153 119 109
1.81215369701385498 -0.530057191848754883 7.37881326675415039 96 57 50
-3.26008892059326172 0.959454357624053955 5.83109235763549805 203 191 179
0.872222840785980225 -0.915167927742004395 7.62022590637207031 103 69 57
4.23560333251953125 -0.34949493408203125 7.74279451370239258 211 194 186
-3.37208080291748047 1.3919757604598999 7.76494550704956055 207 198 190
4.23560333251953125 -0.34949493408203125 7.74279451370239258 211 194 186
2.07332849502563477 -0.51409602165222168 6.18079853057861328 109 62 46
2.87491369247436523 -0.536715567111968994 6.66798543930053711 98 46 35
2.07238292694091797 -0.525057733058929443 5.72467660903930664 173 136 118
0.264364421367645264 2.01176023483276367 7.75389242172241211 206 192 181
-7.95834875106811523 0.613710999488830566 7.73825788497924805 206 193 186
-5.59219455718994141 2.53758049011230469 7.78271913528442383 201 188 177
0.87236553430557251 -1.72252380847930908 6.14474010467529297 129 78 61
4.91626834869384766 2.52507138252258301 7.75242996215820312 205 195 186
6.63229608535766602 2.56303167343139648 7.76600170135498047 205 192 184
4.531768798828125 2.72888088226318359 7.77655935287475586 208 194 183
2.61356425285339355 3.11787939071655273 7.76526498794555664 208 198 189
6.47528934478759766 2.68069124221801758 7.77602720260620117 203 190 182
0.863503575325012207 -1.56435596942901611 5.83310794830322266 135 83 69
3.87248492240905762 2.78194308280944824 7.7805638313293457 205 186 172
-1.97519576549530029 0.252397686243057251 6.20926237106323242 107 65 53
3.87248492240905762 2.78194308280944824 7.7805638313293457 205 186 172
0.873954236507415771 -1.77827513217926025 6.14353084564208984 163 120 101
0.873110115528106689 -1.11022078990936279 6.73990440368652344 174 137 119
2.61356425285339355 3.11787939071655273 7.76526498794555664 208 198 189
-3.61837363243103027 -0.384768962860107422 5.73016119003295898 206 196 187
0.881037056446075439 -0.598681449890136719 6.42276811599731445 165 119 93
2.08603930473327637 -0.524619579315185547 6.41469812393188477 143 105 86
-3.08263015747070312 0.831579327583312988 5.73246288299560547 122 74 65
2.07322001457214355 -0.519998908042907715 7.15599346160888672 101 53 41
0.871635317802429199 -1.50351941585540771 7.48805522918701172 117 65 51
-2.0173494815826416 0.168276652693748474 6.47610616683959961 153 106 90
-2.0107111930847168 -0.233290925621986389 6.63822650909423828 112 56 41
0.848901510238647461 -1.54540205001831055 7.33047676086425781 121 78 61
-1.99734079837799072 0.139715880155563354 5.82335376739501953 167 150 139
-2.0675203800201416 0.0352685637772083282 5.7310791015625 118 81 73
-2.20908975601196289 -0.373671621084213257 6.55266141891479492 171 122 108
-1.99597978591918945 -0.00898804329335689545 6.20249176025390625 177 143 124
0.883602380752563477 -1.48643934726715088 6.80157089233398438 117 59 39
-3.50180912017822266 0.0740148276090621948 5.74585485458374023 120 91 83
0.864318907260894775 -1.34588468074798584 7.69383907318115234 90 47 39
1.53570806980133057 -0.510935664176940918 6.1357111930847168 88 38 31
1.28641331195831299 -0.52880936861038208 6.49761486053466797 81 43 30
-3.28459000587463379 -0.38957938551902771 6.90744352340698242 146 95 75
-1.99592196941375732 -0.380644619464874268 5.8911137580871582 203 183 174
0.863713622093200684 -1.12377941608428955 6.7005763053894043 151 121 110
2.25026416778564453 -0.529035806655883789 7.02993202209472656 175 151 137
-2.9862830638885498 -0.3744162917137146 6.62354469299316406 167 119 97
-1.99127578735351562 0.775784671306610107 6.45482540130615234 170 145 140
1.93253159523010254 -0.522750914096832275 5.99189281463623047 111 65 49
-2.09682250022888184 -0.383498638868331909 7.35802841186523438 158 106 89
0.970154523849487305 -0.515648961067199707 6.00771903991699219 192 163 158
-3.48803949356079102 -0.361549109220504761 6.38866043090820312 146 99 79
-7.28035497665405273 0.790552675724029541 7.76018142700195312 206 199 191
2.37865328788757324 -0.523153364658355713 6.52231216430664062 107 61 46
-9.28907012939453125 0.794580996036529541 7.74865245819091797 205 194 187
2.63251328468322754 -0.511896133422851562 6.03473997116088867 111 66 53
0.861258625984191895 -1.22497713565826416 6.07929420471191406 136 83 60
-2.7151496410369873 0.650781333446502686 5.77791547775268555 114 79 73
-1.99492490291595459 0.570397794246673584 6.66155815124511719 136 94 78
0.957694947719573975 -1.59331941604614258 5.72221565246582031 194 146 127
1.9117659330368042 -0.676027774810791016 5.73313379287719727 140 124 111
-9.52104949951171875 1.18229305744171143 7.77339410781860352 205 190 183
1.90932750701904297 -0.967632591724395752 5.73259639739990234 133 101 90
-9.57729816436767578 0.826499402523040771 7.79047632217407227 204 187 177
2.02349042892456055 -0.520197212696075439 6.56298303604125977 90 48 32
2.37667727470397949 -0.522233128547668457 6.51449346542358398 107 61 46
-3.20988273620605469 -0.364163845777511597 5.78557395935058594 166 111 90
1.15981626510620117 -0.512143552303314209 6.174163818359375 83 40 33
4.02789974212646484 3.39111757278442383 7.78649663925170898 187 166 149
-2.46860003471374512 -2.22171640396118164 7.75398921966552734 209 195 185
0.970154523849487305 -0.515648961067199707 6.00771903991699219 192 163 158
0.879668772220611572 -0.64686286449432373 6.75346851348876953 154 97 78
-1.98283064365386963 -0.258749485015869141 6.97870969772338867 186 136 116
-0.388423711061477661 3.27444958686828613 7.88302040100097656 211 198 190
1.01473057270050049 -0.541546046733856201 7.02577733993530273 67 37 30
1.32937288284301758 -0.517840325832366943 6.86348581314086914 66 37 29
-9.38882255554199219 0.123654827475547791 7.74270963668823242 203 192 186
2.37856721878051758 -0.524311184883117676 6.64796161651611328 101 55 42
-2.00248193740844727 0.870380580425262451 5.78883504867553711 169 145 135
2.51728940010070801 -0.518056988716125488 6.47929620742797852 150 106 93
-9.68100166320800781 -0.361967265605926514 7.75643014907836914 202 187 180
1.67778456211090088 -0.51610177755355835 6.20956802368164062 178 146 130
-2.01918935775756836 0.0762634202837944031 7.16847991943359375 105 62 48
1.26610493659973145 -0.509651720523834229 6.21173191070556641 72 35 26
-1.99643898010253906 0.577335715293884277 6.36531972885131836 169 138 129
1.0554664134979248 -0.53405463695526123 7.38151025772094727 149 121 117
-7.74126338958740234 0.730404019355773926 7.75942897796630859 210 197 188
0.813209056854248047 -0.508090019226074219 5.64004135131835938 194 181 172
0.880751311779022217 -0.504944205284118652 6.57249927520751953 78 44 35
0.882243573665618896 -0.793845415115356445 6.03814935684204102 191 156 136
-1.44463169574737549 2.94935703277587891 7.77641916275024414 208 195 185
0.868573367595672607 -1.52746045589447021 5.92465686798095703 162 105 88
2.7976531982421875 -0.507649838924407959 5.72848606109619141 178 135 126
2.05360603332519531 -0.52644723653793335 6.07421255111694336 109 66 49
0.870210230350494385 -1.46452593803405762 5.8395533561706543 109 46 29
0.865438878536224365 -1.11529529094696045 7.38536500930786133 155 105 85
2.17825078964233398 -0.520931124687194824 6.15232753753662109 173 136 119
1.26610493659973145 -0.509651720523834229 6.21173191070556641 72 35 26
1.66553449630737305 3.10754132270812988 7.75988483428955078 210 197 189
2.54718565940856934 -0.519242346286773682 6.41597938537597656 106 61 50
-2.15266680717468262 -0.371789783239364624 6.09374475479125977 108 61 45
0.864250242710113525 -1.16348254680633545 6.5562586784362793 147 101 77
2.76433610916137695 -0.526278376579284668 6.66185379028320312 104 61 45
1.52460694313049316 -0.52402794361114502 6.96400022506713867 93 49 36
1.81440770626068115 -0.527586042881011963 7.24042034149169922 89 46 40
-2.73498129844665527 -0.370133757591247559 5.80000495910644531 157 103 82
2.47118401527404785 -0.532929182052612305 7.62703180313110352 166 142 131
1.91349077224731445 -0.944743096828460693 5.72260951995849609 116 86 75
-1.99512052536010742 -0.112316697835922241 5.76205730438232422 152 105 90
-3.26743006706237793 -0.374408632516860962 7.49075603485107422 129 85 71
-2.00205826759338379 0.0118014654144644737 6.33289957046508789 131 100 85
-2.05839085578918457 -0.390608102083206177 6.96258258819580078 155 110 87
-2.00056576728820801 0.61600947380065918 6.11243724822998047 85 60 53
-2.9387657642364502 0.763359010219573975 5.74227142333984375 122 82 74
-2.00272560119628906 -0.100459136068820953 6.0103607177734375 122 75 59
0.864728271961212158 -0.82352900505065918 6.29374551773071289 142 87 66
-1.99744164943695068 -0.0382487177848815918 6.24631547927856445 168 121 105
-1.99342978000640869 -0.00226877257227897644 7.19157314300537109 103 59 44
-1.99974632263183594 0.382932215929031372 6.48604679107666016 182 145 127
0.869260668754577637 -0.622690916061401367 6.62520551681518555 162 118 93
-1.98382985591888428 0.387861400842666626 6.5519256591796875 104 66 49
-3.82985353469848633 0.27196165919303894 5.71302556991577148 162 133 122
4.49670600891113281 3.29934787750244141 7.77388429641723633 181 162 146
-1.99464523792266846 0.504743993282318115 5.79518699645996094 108 74 64
2.1185300350189209 -0.528137266635894775 6.63424539566040039 102 59 46
-9.54741764068603516 -1.013266921043396 7.73281717300415039 205 192 181
1.9658275842666626 -0.537113785743713379 6.61291599273681641 101 57 44
-2.03393697738647461 0.864383995532989502 7.73968076705932617 96 46 41
-2.00067424774169922 0.698287606239318848 6.27232503890991211 141 102 95
0.918719768524169922 -0.514170944690704346 6.21549797058105469 146 121 114
2.08832573890686035 -0.518950223922729492 6.47513914108276367 169 127 111
2.30959320068359375 -0.528167009353637695 6.60375022888183594 189 143 127
-9.3912811279296875 -0.338326692581176758 7.74674129486083984 205 195 186
1.10252439975738525 -0.521763205528259277 7.28898048400878906 79 51 47
1.06783580780029297 -0.523087024688720703 7.23220348358154297 70 45 38
-2.17073369026184082 0.609163820743560791 5.73266172409057617 115 74 68
-1.99885404109954834 -0.242718040943145752 6.34003162384033203 192 152 140
-2.00260829925537109 -0.110284894704818726 5.94779586791992188 118 69 54
-1.99340701103210449 0.0657684952020645142 6.57804298400878906 113 67 52
-1.99755501747131348 0.735991835594177246 6.8956756591796875 161 131 123
0.873127520084381104 -1.79146599769592285 7.41532135009765625 185 135 118
-2.00864148139953613 0.140604615211486816 6.98969221115112305 111 65 52
-2.47767257690429688 -0.369845062494277954 5.90313577651977539 192 155 137
-1.99890339374542236 0.244658634066581726 5.88353109359741211 96 55 46
0.870673239231109619 -1.80205726623535156 7.49928998947143555 119 71 58
1.13004255294799805 -0.604017138481140137 5.73279523849487305 143 112 107
-2.03414273262023926 -0.364544063806533813 5.85345649719238281 175 129 113
2.3826601505279541 -0.52312016487121582 7.55800914764404297 83 55 44
0.86604386568069458 -0.734826505184173584 6.77838134765625 201 164 145
2.67925930023193359 -0.515922367572784424 5.88999652862548828 185 146 131
1.07242977619171143 -0.51410210132598877 5.94873189926147461 162 125 116
1.22392213344573975 -0.513519823551177979 5.95615625381469727 159 117 103
0.872639298439025879 -0.659421026706695557 7.69637537002563477 196 157 140
-3.46173214912414551 0.0503976494073867798 5.7348322868347168 201 169 161
1.29750335216522217 -0.518525600433349609 6.02262639999389648 152 114 106
2.54637742042541504 -0.517362534999847412 6.04372978210449219 113 70 59
1.9614100456237793 -0.516109108924865723 6.081756591796875 181 138 121
1.32441139221191406 -0.516475498676300049 6.17240333557128906 150 112 103
-2.849334716796875 -0.386713981628417969 5.96919536590576172 142 98 79
2.08752298355102539 -0.5183371901512146 6.19999265670776367 103 60 41
0.918719768524169922 -0.514170944690704346 6.21549797058105469 146 121 114
0.875989139080047607 -1.13128972053527832 6.89952898025512695 165 133 116
1.2244868278503418 -0.515462219715118408 6.2339320182800293 173 135 124
-2.11875700950622559 0.32981070876121521 5.72868204116821289 109 75 66
1.89100885391235352 -0.520291805267333984 6.3555908203125 192 146 131
2.00582337379455566 -0.522319376468658447 6.36076450347900391 98 56 40
0.839680314064025879 -1.54641664028167725 7.31356668472290039 121 78 61
-2.69670605659484863 -0.36075553297996521 5.73094797134399414 113 84 80
2.30959320068359375 -0.528167009353637695 6.60375022888183594 189 143 127
1.34060990810394287 -1.34903442859649658 5.73366928100585938 144 109 89
1.04345524311065674 -0.523428022861480713 6.79413414001464844 138 105 101
-3.7819972038269043 -0.247110903263092041 5.73059368133544922 118 101 93
1.44777238368988037 -0.523857712745666504 6.81938934326171875 181 149 136
4.14782047271728516 3.05211257934570312 7.77058935165405273 205 190 181
0.869693279266357422 -1.62568306922912598 6.05463886260986328 100 53 37
1.12494862079620361 -0.525043070316314697 7.15141439437866211 63 32 29
0.871272623538970947 -0.810141503810882568 7.69257307052612305 105 71 63
1.31315302848815918 -0.528151571750640869 7.19923257827758789 184 174 164
2.34686803817749023 -0.541581213474273682 7.7332463264465332 97 67 56
4.31662416458129883 0.0731356814503669739 7.76235151290893555 185 172 163
1.04041993618011475 -0.644113421440124512 5.74775600433349609 171 137 127
-2.00758123397827148 -0.143454074859619141 5.87529897689819336 115 68 54
-3.56061434745788574 -0.181587010622024536 5.74002361297607422 159 129 119
1.27940309047698975 -0.523300290107727051 5.73294734954833984 115 81 71
-2.21270489692687988 -0.382857561111450195 7.33798360824584961 149 98 81
1.76266980171203613 -0.518293261528015137 5.72291898727416992 187 151 137
0.870893955230712891 -0.80891793966293335 6.57077407836914062 154 94 71
1.44840490818023682 -0.490074008703231812 5.6984095573425293 184 146 133
0.865060865879058838 -0.657495975494384766 5.93211698532104492 186 136 103
1.41422104835510254 -0.577193200588226318 5.71383333206176758 206 182 172
-3.68970632553100586 0.893570780754089355 5.74113559722900391 173 140 133
-2.00191307067871094 0.548842787742614746 7.21227407455444336 99 53 39
0.865207433700561523 -0.732427895069122314 6.88964462280273438 157 106 85
0.89607316255569458 -0.837593734264373779 6.67346763610839844 159 97 74
-2.02859258651733398 0.656162142753601074 5.77561664581298828 120 83 74
0.870787203311920166 -0.606109678745269775 7.322235107421875 187 143 122
-3.63369512557983398 0.661462306976318359 5.73811721801757812 172 137 117
-1.99703240394592285 0.779817581176757812 7.5977168083190918 93 55 47
-3.33313751220703125 -0.372348994016647339 6.80765533447265625 149 112 93
-3.80139708518981934 0.925273716449737549 5.76568698883056641 200 182 170
2.50615811347961426 -0.519394636154174805 5.9806056022644043 161 118 109
1.51448774337768555 -0.514239847660064697 6.01633596420288086 160 123 114
-2.24549174308776855 -0.386448264122009277 7.18279218673706055 115 68 51
1.07786571979522705 -0.513308882713317871 6.63551950454711914 98 59 55
-3.8950507640838623 0.478898763656616211 5.72585248947143555 141 105 91
0.878037869930267334 -0.671839416027069092 5.75345754623413086 181 133 115
-3.15120863914489746 0.906485497951507568 5.74483203887939453 137 103 94
-2.00403022766113281 0.49098515510559082 7.1276707649230957 122 76 61
-2.49826574325561523 0.414467275142669678 5.73873233795166016 132 105 98
0.882643163204193115 -1.66658115386962891 6.10532188415527344 117 61 44
0.876391351222991943 -0.643529713153839111 6.30367851257324219 160 107 81
1.62941825389862061 -0.540252923965454102 7.32656288146972656 101 61 49
0.876063346862792969 -0.537444829940795898 7.16953897476196289 142 97 76
0.878553152084350586 -0.707519948482513428 7.03122425079345703 156 90 64
2.43469119071960449 -0.528476357460021973 7.15338945388793945 189 164 153
2.21318578720092773 -0.513379931449890137 6.49736356735229492 159 113 97
0.864218354225158691 -0.810673892498016357 7.17059755325317383 161 113 93
1.76139426231384277 -1.46324574947357178 5.72800683975219727 154 121 109
1.79817020893096924 -0.511343955993652344 5.82818174362182617 157 111 95
2.25062298774719238 -0.511632800102233887 5.80468368530273438 123 87 71
-2.05284595489501953 0.823425650596618652 7.24203872680664062 105 64 60
-2.01104736328125 0.000980324577540159225 7.14142799377441406 171 125 111
-2.00156402587890625 0.2547454833984375 6.17259836196899414 132 99 90
4.67554092407226562 3.26355147361755371 7.78414011001586914 201 191 182
-3.63369512557983398 0.661462306976318359 5.73811721801757812 172 137 117
-1.99178135395050049 0.23248647153377533 7.1739954948425293 147 104 88
-3.74017834663391113 -0.379233747720718384 6.94918155670166016 194 145 128
-2.61218047142028809 0.343692392110824585 5.72893285751342773 118 85 78
-2.00156402587890625 0.2547454833984375 6.17259836196899414 132 99 90
-2.01698970794677734 -0.375224709510803223 5.86223173141479492 125 85 73
-1.9979703426361084 0.242103740572929382 6.13099098205566406 85 51 41
-2.10808801651000977 0.735418140888214111 5.75056171417236328 145 104 95
-2.00192141532897949 0.232894793152809143 5.7456517219543457 131 85 78
0.849635779857635498 -1.78138589859008789 6.91534614562988281 163 108 88
-2.01104736328125 0.000980324577540159225 7.14142799377441406 171 125 111
-1.99188578128814697 -0.0717044100165367126 7.31637954711914062 107 60 44
-2.13434267044067383 -0.359026551246643066 5.74659824371337891 149 101 89
-1.99876677989959717 -0.156004905700683594 7.27184629440307617 176 136 128
0.867651164531707764 -1.75527644157409668 7.13019752502441406 127 66 48
-3.06562447547912598 -0.392605602741241455 6.146331787109375 146 104 88
-1.98839902877807617 -0.0762390866875648499 6.14202451705932617 180 133 117
0.880188524723052979 -1.81097209453582764 5.83220720291137695 205 184 174
-2.00254631042480469 -0.189016237854957581 6.36885881423950195 132 90 74
0.865637660026550293 -1.66385066509246826 7.38318872451782227 171 123 107
-4.04679250717163086 -0.169519290328025818 5.77843666076660156 177 155 144
-2.13654279708862305 -0.374829560518264771 6.22866630554199219 109 60 43
-1.99486649036407471 -0.327164918184280396 6.87534666061401367 183 136 113
0.869733750820159912 -1.19711208343505859 6.45155668258666992 135 79 62
-2.00214958190917969 -0.362802773714065552 7.07986164093017578 197 176 154
-3.52460670471191406 -0.370744973421096802 6.57177305221557617 151 104 86
-1.98737692832946777 -0.256050437688827515 6.37368440628051758 134 95 81
1.83441424369812012 -0.542172610759735107 7.75030040740966797 104 74 63
-3.38397312164306641 -0.370142340660095215 6.05263042449951172 138 86 65
-2.57058596611022949 -0.381730049848556519 6.63183116912841797 127 69 49
-3.57421588897705078 -0.37321239709854126 6.39555025100708008 151 98 77
-3.81999754905700684 0.00632813898846507072 5.73073911666870117 167 151 142
-2.01152992248535156 -0.377954602241516113 7.05244207382202148 126 92 80
-2.00325274467468262 0.0399088747799396515 7.41945552825927734 109 66 50
-3.24221563339233398 0.0741724520921707153 5.73485469818115234 129 87 80
-3.99656057357788086 -0.169301450252532959 5.73143529891967773 199 168 158
-2.5013430118560791 -0.374841839075088501 6.45115995407104492 184 142 130
-4.52339506149291992 0.198588505387306213 5.91278600692749023 192 181 172
-1.97389054298400879 0.0480332076549530029 6.97019577026367188 131 92 79
5.77486038208007812 3.02621650695800781 7.7939753532409668 184 159 137
0.864671587944030762 -1.24805796146392822 7.44398880004882812 125 60 45
7.00955343246459961 -0.136174902319908142 8.12565994262695312 206 193 185
0.873226463794708252 -1.45828425884246826 5.97143650054931641 120 51 35
-2.57404780387878418 -0.38904920220375061 5.68383216857910156 201 188 179
-3.04587411880493164 -2.24237370491027832 7.73823881149291992 209 196 187
0.865076124668121338 -1.22355210781097412 6.63127851486206055 198 148 126
2.20353293418884277 -0.52611386775970459 6.61019229888916016 102 63 46
3.20463061332702637 3.0260322093963623 7.7264404296875 205 192 183
2.42095756530761719 -0.702206552028656006 5.72562217712402344 127 89 84
-9.13573074340820312 1.11272025108337402 7.74627590179443359 204 191 182
