ply
format ascii 1.0
element vertex 677
property float x
property float y
property float z
property uchar red
property uchar green
property uchar blue
end_header
-0.0637292489409446716 -17.6923294067382812 26.3107872009277344 0 0 0
5.94361305236816406 2.01238155364990234 23.8034877777099609 169 77 59
-3.10379123687744141 1.24683427810668945 21.4029827117919922 159 84 73
-4.0340418815612793 0.744198203086853027 8.05359077453613281 4 0 0
7.23960208892822266 -2.25097799301147461 27.3296127319335938 88 20 7
-0.312079697847366333 -19.3484096527099609 26.2240791320800781 33 0 0
-2.85416507720947266 -1.36131453514099121 21.0977306365966797 208 94 72
0.185949161648750305 -16.9058494567871094 25.7579288482666016 66 31 20
-5.44817304611206055 0.157177910208702087 21.8204250335693359 177 71 55
1.9338611364364624 -12.6391830444335938 25.2978286743164062 105 47 31
-3.38331246376037598 0.697173118591308594 21.1117935180664062 181 79 75
-1.12995457649230957 -0.887479305267333984 24.4726791381835938 147 63 129
-4.63345241546630859 3.44374775886535645 22.8005275726318359 186 89 72
-1.40340399742126465 -0.828578770160675049 20.1630229949951172 245 245 240
2.64768481254577637 0.931733369827270508 11.661808967590332 152 77 55
-4.00468826293945312 2.01872611045837402 22.6162662506103516 155 60 72
0.49797290563583374 -5.35921573638916016 22.7757110595703125 202 87 62
-5.86341047286987305 1.86639785766601562 22.6733036041259766 182 82 67
-2.35570979118347168 0.840254783630371094 21.8733634948730469 228 135 120
-29.0397968292236328 -23.6041755676269531 42.6717185974121094 170 137 146
-1.70731258392333984 -1.07098019123077393 21.8384742736816406 158 78 141
5.68168258666992188 0.626911401748657227 6.34010648727416992 219 191 196
-0.959417581558227539 -3.16342616081237793 21.9945793151855469 189 69 52
-0.779891371726989746 -1.26243829727172852 23.9105663299560547 141 36 33
0.840305626392364502 0.0826652422547340393 22.8060131072998047 183 68 50
1.67234528064727783 5.1075286865234375 15.2417287826538086 156 83 68
5.44023704528808594 -3.02282476425170898 16.1260147094726562 193 112 93
-4.64691495895385742 0.948085308074951172 20.2171134948730469 187 83 70
4.04727506637573242 -11.0437402725219727 29.0431690216064453 73 15 3
0.706724584102630615 -2.19505667686462402 22.2870254516601562 211 95 72
0.0210520606487989426 -18.0234241485595703 25.7689552307128906 50 1 0
5.82711267471313477 -0.522938311100006104 23.4472255706787109 82 19 4
-9.23975086212158203 -2.4334712028503418 14.4077301025390625 136 81 74
-2.34178829193115234 0.11434810608625412 21.6454906463623047 0 0 0
2.86997365951538086 -13.5843772888183594 29.2615509033203125 69 4 0
4.50867938995361328 0.571220517158508301 18.7270908355712891 79 15 3
-0.0427949875593185425 -7.2521052360534668 23.0268974304199219 176 67 45
-3.03534030914306641 -6.69079971313476562 13.4624824523925781 96 49 36
-7.22212505340576172 0.0950763300061225891 21.6682910919189453 190 101 79
1.3937990665435791 -22.8275585174560547 28.4138336181640625 63 27 18
0.618215382099151611 -2.07697772979736328 -1.1580810546875 139 85 70
-6.05331087112426758 0.0876423120498657227 22.6547431945800781 181 79 64
4.76932239532470703 -20.7905101776123047 25.6008052825927734 0 0 0
-3.21268963813781738 -1.55991315841674805 22.6749286651611328 200 83 58
-2.85330510139465332 -1.61527705192565918 21.9045906066894531 187 71 53
-4.75683689117431641 1.14935600757598877 20.5927867889404297 221 126 115
1.20634794235229492 5.81753110885620117 16.2176971435546875 188 127 102
0.918173015117645264 3.20568656921386719 0.962556123733520508 215 184 163
-1.06692588329315186 -3.53051424026489258 22.1194343566894531 193 75 58
-6.27002334594726562 0.377068907022476196 21.6693687438964844 204 111 96
-8.43322467803955078 -1.95258927345275879 14.4512233734130859 119 67 53
4.38052225112915039 -0.314471632242202759 29.1027851104736328 0 0 0
-7.53385114669799805 0.620153486728668213 24.4054641723632812 176 73 58
3.69507384300231934 1.80318856239318848 14.8055629730224609 162 66 44
1.40562009811401367 6.57596826553344727 16.5232467651367188 165 92 77
-9.40868854522705078 -0.138839557766914368 14.3224878311157227 120 79 68
3.4329068660736084 3.08575749397277832 14.662755012512207 202 123 105
3.27714014053344727 4.12552928924560547 11.7379922866821289 209 130 115
-10.7458209991455078 -0.824647486209869385 16.1461372375488281 143 96 88
2.09609770774841309 4.61823177337646484 12.3180313110351562 201 126 110
-2.52720952033996582 -2.43025112152099609 21.9840793609619141 191 80 64
1.23290705680847168 -3.13056612014770508 22.8239479064941406 207 96 73
-3.81240224838256836 1.81294548511505127 20.9475669860839844 0 0 0
-5.4646916389465332 -7.50829029083251953 8.21202754974365234 163 122 123
1.21874046325683594 -8.7206878662109375 23.5796756744384766 111 54 37
-11.5902795791625977 -0.452498704195022583 17.698760986328125 144 96 86
0.953871309757232666 -6.78986740112304688 22.6031246185302734 152 43 29
-8.88690853118896484 -3.05873966217041016 13.093048095703125 0 0 0
-11.3611822128295898 -1.37639117240905762 16.8098316192626953 145 95 86
-13.0067167282104492 -2.88521075248718262 18.7767734527587891 154 104 97
-1.36301863193511963 -1.60433268547058105 21.7635440826416016 246 228 216
-10.5051870346069336 1.88713181018829346 12.9836997985839844 107 67 58
-4.66147613525390625 -0.398532509803771973 21.912628173828125 184 74 57
-2.57540631294250488 0.287416189908981323 19.7261295318603516 133 26 43
-4.83792495727539062 2.18182897567749023 21.6761093139648438 195 106 92
-0.996773779392242432 -21.4313564300537109 21.1038570404052734 236 207 177
4.53592920303344727 0.25832560658454895 15.4991321563720703 200 105 87
1.35867571830749512 -6.86779117584228516 22.3047027587890625 185 83 61
4.46263217926025391 -3.93020915985107422 26.6973991394042969 132 51 28
0.159716829657554626 -0.434035986661911011 0.240866467356681824 144 60 40
-5.41848516464233398 -0.69790184497833252 21.5544700622558594 176 67 46
-5.5976405143737793 1.81717872619628906 21.5111942291259766 180 74 61
-4.72318935394287109 0.089867129921913147 22.6640300750732422 184 75 55
-1.50345098972320557 0.201680496335029602 21.6199283599853516 186 66 50
-0.394505143165588379 3.31918120384216309 22.8119182586669922 155 63 48
3.65781545639038086 1.27462255954742432 14.5762386322021484 0 0 0
2.99477267265319824 4.07825660705566406 17.6537227630615234 183 104 81
1.78888940811157227 4.2302703857421875 14.5377273559570312 180 110 90
-11.1765642166137695 0.204506844282150269 17.6698246002197266 39 11 10
-6.75770902633666992 -3.51209759712219238 12.6622762680053711 196 144 133
1.28896224498748779 5.6814265251159668 14.4814796447753906 164 92 76
-2.82498836517333984 -2.20058345794677734 23.1913509368896484 193 77 67
-11.4470033645629883 1.1669304370880127 14.0386676788330078 122 83 78
-1.85770738124847412 -2.09000754356384277 22.3456668853759766 191 79 65
-3.30530452728271484 2.32434439659118652 21.4729251861572266 120 49 81
-6.80028676986694336 -0.495179802179336548 22.1629467010498047 190 96 70
-2.54740309715270996 -2.17896008491516113 23.0138168334960938 240 136 121
-3.40331315994262695 1.43666672706604004 21.8255634307861328 178 80 69
-38.374298095703125 18.2145671844482422 62.2665748596191406 47 28 22
-0.40357506275177002 3.27099108695983887 22.6705265045166016 156 61 49
6.04733610153198242 -4.47163057327270508 20.1610946655273438 0 0 0
-0.146963134407997131 -4.15506839752197266 23.0404949188232422 0 0 0
-10.9350137710571289 -0.766737043857574463 16.3311901092529297 147 111 97
-1.98749315738677979 -0.68880009651184082 28.2862930297851562 239 242 241
1.92575860023498535 5.33223962783813477 13.3711280822753906 202 130 117
2.58306884765625 1.97514867782592773 19.9802703857421875 56 1 0
-16.880096435546875 -23.9388713836669922 36.2890739440917969 124 66 65
15.6745729446411133 -14.3364830017089844 16.7198352813720703 0 0 0
-5.02181720733642578 -3.75385260581970215 5.76191091537475586 156 116 124
-9.8694610595703125 -0.0400482378900051117 14.9135551452636719 177 127 116
-3.52224302291870117 6.23805427551269531 22.9096317291259766 150 70 55
-5.70812034606933594 -1.26730704307556152 22.4163684844970703 184 78 53
5.75106430053710938 2.68506145477294922 24.2789802551269531 0 0 0
2.00463080406188965 -14.4017524719238281 27.3592605590820312 51 8 0
0.528978109359741211 -15.2525529861450195 25.5045719146728516 117 38 23
-1.71752250194549561 -3.2962956428527832 22.8621540069580078 196 91 74
-17.2207965850830078 4.60357475280761719 22.9924392700195312 123 75 65
-4.29714584350585938 1.27574455738067627 21.0178565979003906 162 78 101
0.870573341846466064 3.6094050407409668 24.4400138854980469 142 53 39
1.87167322635650635 5.51830863952636719 16.6276836395263672 167 91 74
-4.89597082138061523 1.39113354682922363 22.4218273162841797 202 99 102
0.944638550281524658 -1.33796977996826172 22.5016403198242188 213 106 80
25.5793514251708984 -1.23684895038604736 26.8110446929931641 0 0 1
-0.701181352138519287 -1.44220709800720215 23.3800849914550781 185 85 83
4.94003820419311523 -8.03128910064697266 29.4184951782226562 0 0 0
-5.84465456008911133 -0.0505377128720283508 21.7377891540527344 178 71 54
-2.53280305862426758 -1.25254881381988525 21.7311935424804688 187 68 54
-1.99249589443206787 -0.0897271037101745605 21.3971385955810547 219 120 104
-5.394744873046875 -0.0671233609318733215 21.5592079162597656 207 105 83
-2.31282258033752441 -1.76905250549316406 23.7269954681396484 232 133 112
-6.61379623413085938 0.101672761142253876 21.6017837524414062 180 70 55
-2.24235868453979492 -2.21967434883117676 22.5877304077148438 185 69 59
5.16269874572753906 1.42018723487854004 6.71510076522827148 213 189 192
7.87340641021728516 -3.61975598335266113 7.64660978317260742 181 118 108
-2.90104770660400391 2.00473690032958984 20.7734565734863281 213 119 107
5.06893491744995117 -5.20603513717651367 28.1479721069335938 76 16 5
-2.29365396499633789 -2.24311566352844238 22.7157115936279297 202 87 77
-2.73554587364196777 -2.58636307716369629 23.1808280944824219 0 0 0
-1.64738571643829346 -0.527208507061004639 22.4173088073730469 246 239 238
-1.74875724315643311 -1.34713172912597656 19.7876453399658203 191 90 86
-4.76084184646606445 6.78300333023071289 23.1963310241699219 155 76 61
-3.22092294692993164 2.51364469528198242 21.8813457489013672 179 85 86
6.25634622573852539 -9.10768508911132812 19.0379524230957031 144 70 46
-1.03746676445007324 -1.27387368679046631 24.6497688293457031 237 239 236
3.00681042671203613 3.22293305397033691 13.6563501358032227 227 162 148
4.55457782745361328 -6.02263307571411133 27.3976840972900391 121 45 28
2.60696649551391602 -13.9756250381469727 28.7488689422607422 56 10 1
-4.32154035568237305 -5.79854774475097656 13.2270841598510742 0 0 0
-5.2053074836730957 0.768787145614624023 21.9539947509765625 195 89 75
1.85882270336151123 5.08965063095092773 12.8147993087768555 203 139 127
0.980712413787841797 -2.08091640472412109 22.4320583343505859 166 63 48
-0.00560626434162259102 2.02632021903991699 22.4717502593994141 210 109 91
1.64411675930023193 -20.7219753265380859 26.052032470703125 54 15 4
-4.81401586532592773 1.02750968933105469 22.0683097839355469 242 140 128
9.58250236511230469 -4.10964441299438477 7.47108793258666992 0 0 0
-10.1429719924926758 0.0911614745855331421 15.2125949859619141 128 86 72
-1.9731903076171875 -2.61673378944396973 22.4684696197509766 201 102 82
1.1923288106918335 -14.3196048736572266 25.3312187194824219 126 51 35
1.05798912048339844 3.2913825511932373 23.3899059295654297 141 58 43
-3.25618290901184082 -0.927648663520812988 21.7043819427490234 194 75 59
-0.740574061870574951 -0.703574597835540771 21.8607978820800781 226 125 116
3.05420947074890137 -13.0326623916625977 28.3442096710205078 41 9 4
-7.34487104415893555 1.01337194442749023 21.4227828979492188 167 64 46
5.98399448394775391 -19.5227584838867188 22.5463104248046875 86 38 26
4.09473371505737305 1.25010597705841064 17.8585605621337891 78 14 4
4.31439208984375 1.82692801952362061 18.8877296447753906 162 78 54
-0.2275494784116745 -3.99950814247131348 22.3227920532226562 188 64 48
2.9086151123046875 3.64261865615844727 13.1667585372924805 216 159 150
-4.757720947265625 3.0630950927734375 22.0433387756347656 194 95 78
-1.52346527576446533 0.0532802976667881012 22.067169189453125 188 71 55
-1.76660335063934326 -2.32304835319519043 21.3227920532226562 193 113 99
0.202809765934944153 6.78973865509033203 15.1268367767333984 192 124 107
-3.56619620323181152 0.582729518413543701 23.5205116271972656 207 108 109
5.91545677185058594 -3.36347746849060059 19.661865234375 132 45 28
0.590662479400634766 0.434226810932159424 22.3724212646484375 205 102 83
-9.06973361968994141 -1.43487155437469482 14.0478801727294922 169 127 113
-2.45100903511047363 -1.73085153102874756 22.5763893127441406 198 88 71
2.26221799850463867 1.31157565116882324 24.0379352569580078 157 61 37
-2.46252799034118652 1.55694520473480225 21.4284534454345703 191 80 66
5.55147457122802734 1.00199282169342041 10.9946985244750977 214 155 149
1.07860112190246582 -6.93141412734985352 22.6834201812744141 154 51 32
9.47079944610595703 -4.96023464202880859 11.0881061553955078 140 82 67
4.45683813095092773 -6.58904123306274414 27.5271549224853516 123 44 25
4.21176576614379883 2.41996288299560547 20.6200065612792969 81 25 12
4.28471660614013672 -25.4183807373046875 28.9835853576660156 87 41 25
4.67745780944824219 0.658764541149139404 18.6729755401611328 126 59 41
-2.26822710037231445 0.129055708646774292 20.1251468658447266 177 79 82
-7.28707551956176758 1.77116858959197998 17.0041599273681641 112 45 29
-21.9549846649169922 7.36599206924438477 40.7230148315429688 101 55 42
1.72897231578826904 -22.9759578704833984 26.4720897674560547 79 30 15
-4.340057373046875 -5.70647478103637695 12.9768257141113281 183 94 96
4.76844596862792969 -11.2201805114746094 32.0288963317871094 78 18 7
3.32731914520263672 -10.5701618194580078 25.6801815032958984 72 9 4
109.262062072753906 6.66953659057617188 134.149261474609375 2 2 1
-2.41296148300170898 -2.30949902534484863 23.7204132080078125 179 67 55
-2.79303622245788574 2.21694540977478027 22.1140975952148438 160 57 44
-4.28239583969116211 0.252914518117904663 20.0942420959472656 217 119 109
5.78694343566894531 1.33587098121643066 18.6994419097900391 241 217 215
-4.72357797622680664 1.62205588817596436 21.1637382507324219 154 62 80
13.8522863388061523 -4.94274568557739258 14.7408170700073242 0 0 0
-0.243331357836723328 -18.3067512512207031 25.12689208984375 49 0 0
5.80349063873291016 -1.72896885871887207 21.8086681365966797 83 19 9
-1.35562396049499512 -17.1224651336669922 19.6287746429443359 91 27 18
25.5767478942871094 -9.20953273773193359 28.4361228942871094 0 2 0
-4.27083301544189453 1.17620408535003662 20.9415092468261719 169 74 80
2.35631728172302246 -11.0866079330444336 24.3011207580566406 145 63 40
-8.25328540802001953 8.24125194549560547 22.9339103698730469 108 55 41
5.10675907135009766 -0.362072408199310303 16.4442558288574219 216 140 124
0.910265624523162842 -3.21525096893310547 22.8006210327148438 183 56 40
7.66421651840209961 4.83682441711425781 13.1962032318115234 218 207 211
6.46121025085449219 -1.29843378067016602 22.3326816558837891 121 48 32
-9.03937435150146484 -2.49591469764709473 16.0641441345214844 137 80 63
7.74870967864990234 -3.04817652702331543 28.2935962677001953 90 24 11
-0.528684735298156738 -4.58680868148803711 22.5220966339111328 188 77 61
-1.16171860694885254 7.18304681777954102 24.8438472747802734 110 46 31
3.87053823471069336 1.54036831855773926 29.1911792755126953 127 51 30
-28.3993091583251953 -31.4719715118408203 45.0852851867675781 0 0 0
-3.58758163452148438 1.71937763690948486 21.5310230255126953 195 88 80
14.6633882522583008 -6.60538148880004883 13.5313014984130859 187 116 99
-4.77505254745483398 -5.65490245819091797 14.4876842498779297 204 132 114
-29.5570201873779297 -18.9091796875 41.7852249145507812 0 0 0
-11.1797313690185547 2.58201932907104492 24.2800483703613281 121 50 34
-2.79216766357421875 4.17364692687988281 22.5074443817138672 159 58 48
3.34124851226806641 -4.79199123382568359 24.5320205688476562 158 52 36
-1.78619885444641113 -1.58892500400543213 20.5004215240478516 225 124 104
4.76449871063232422 -7.46765899658203125 28.1923732757568359 69 11 0
-5.82519006729125977 0.535264849662780762 21.3338069915771484 184 83 71
-10.9039230346679688 5.60201263427734375 23.9506549835205078 96 32 19
-2.75312972068786621 0.192951604723930359 22.0059375762939453 236 242 230
4.47801351547241211 1.05186295509338379 13.5395965576171875 220 156 147
6.1331791877746582 -6.39247608184814453 3.96012973785400391 0 0 0
0.38360711932182312 -3.49935722351074219 26.4218425750732422 206 86 62
-12.7728252410888672 5.06968355178833008 25.4988365173339844 114 62 51
0.970889508724212646 6.44862079620361328 15.24493408203125 0 0 0
-2.58582949638366699 -0.720432162284851074 19.7286930084228516 172 74 65
0.62171483039855957 -4.9356389045715332 22.9204311370849609 205 84 65
-4.25852680206298828 1.78078889846801758 21.4519157409667969 145 66 122
6.1859583854675293 -3.47963905334472656 22.4155158996582031 84 18 1
-2.47872209548950195 -1.88750565052032471 21.5292949676513672 240 136 111
-0.505881249904632568 -1.06597936153411865 23.0544242858886719 169 53 54
5.17818546295166016 0.610217571258544922 6.03464746475219727 0 0 0
-4.24812984466552734 3.46966290473937988 22.0442256927490234 159 56 47
-0.53909987211227417 -18.0969467163085938 24.5061149597167969 116 59 40
5.18844223022460938 -7.18225717544555664 29.9618415832519531 57 5 1
-0.58231198787689209 -4.53115749359130859 22.3554439544677734 183 71 54
6.09318399429321289 2.77754020690917969 9.19880771636962891 222 210 212
-1.01808369159698486 -3.91064763069152832 22.8774166107177734 219 109 89
0.0925148427486419678 -0.97559666633605957 21.6904468536376953 192 61 46
-5.06613588333129883 -0.193381205201148987 21.3602581024169922 180 70 53
3.82365727424621582 -5.32680654525756836 24.9017868041992188 126 29 12
1.44422709941864014 -16.2073345184326172 27.9653053283691406 69 5 0
5.31954336166381836 -10.2480430603027344 33.5281639099121094 72 15 6
-4.71763944625854492 3.06901168823242188 21.9723796844482422 186 93 76
0.879051089286804199 -0.566096842288970947 22.7207603454589844 210 106 81
-5.79675197601318359 1.27695870399475098 22.5742206573486328 0 0 0
2.92889952659606934 3.47014236450195312 14.9307031631469727 184 103 85
-9.45014381408691406 -2.22826218605041504 13.777430534362793 147 95 84
-3.41261029243469238 5.86077260971069336 23.0219631195068359 167 81 64
-8.01254081726074219 -3.12622308731079102 15.2382221221923828 149 89 81
-2.3113243579864502 1.39713585376739502 21.9525623321533203 204 96 80
-2.96622967720031738 0.437356054782867432 21.4680824279785156 150 46 65
-9.73238754272460938 -1.06490230560302734 14.4830455780029297 136 89 82
1.74092710018157959 -0.307921320199966431 1.99618518352508545 196 102 92
-0.00131422176491469145 0.155986294150352478 -0.355873703956604004 138 78 54
-5.54249715805053711 0.173234790563583374 22.0809192657470703 177 67 50
-1.36884665489196777 -20.2523479461669922 23.6702861785888672 73 25 18
-2.46641707420349121 3.14468955993652344 22.4039878845214844 164 67 60
2.07789754867553711 -14.2969169616699219 27.5023040771484375 70 8 0
-4.02583551406860352 5.76980829238891602 22.3062915802001953 166 80 65
0.587485194206237793 -22.2661018371582031 25.7494754791259766 82 38 27
14.8841667175292969 -8.43793487548828125 16.6328372955322266 160 88 64
1.79895162582397461 2.43469572067260742 18.26031494140625 0 0 0
-3.73443031311035156 5.73957967758178711 22.6926116943359375 153 61 46
-3.72656106948852539 2.19417929649353027 21.0941925048828125 152 61 79
-0.848662912845611572 -1.59187424182891846 0.150202929973602295 0 0 0
-3.92873311042785645 -4.21401453018188477 4.97399997711181641 166 125 133
-5.56048583984375 2.38532567024230957 22.0746555328369141 164 58 45
7.0600590705871582 4.78375864028930664 12.7456655502319336 0 0 0
-3.23526334762573242 -0.131439864635467529 22.2656364440917969 209 118 100
-2.77469325065612793 0.292674332857131958 21.6927242279052734 174 88 95
20.2652111053466797 -8.08275508880615234 22.2126026153564453 173 113 103
15.8472213745117188 -0.30531013011932373 18.2525157928466797 0 0 0
7.43342494964599609 -0.509913504123687744 7.68296623229980469 210 164 166
4.15110015869140625 2.28255176544189453 14.4538097381591797 220 155 143
-1.34096479415893555 -1.42005825042724609 20.9923171997070312 247 242 223
-4.82874202728271484 3.63352131843566895 22.0738239288330078 179 86 64
5.99458217620849609 -7.70441484451293945 34.4981422424316406 59 2 1
-2.83853650093078613 -13.1663227081298828 20.8887538909912109 92 30 17
-1.54649865627288818 -0.422182559967041016 22.0521736145019531 240 153 138
-7.31857204437255859 1.37415719032287598 21.0002288818359375 156 61 43
-7.25699996948242188 1.36282134056091309 20.8200473785400391 156 61 43
-2.54506397247314453 5.09964179992675781 22.7115879058837891 150 61 43
7.54981374740600586 3.27033162117004395 11.2257814407348633 219 204 205
0.0885033309459686279 -2.66384410858154297 0.308920830488204956 0 0 0
-2.26170468330383301 -1.91020834445953369 21.9404983520507812 177 65 54
5.71774721145629883 2.03058171272277832 7.93605518341064453 215 185 190
18.40234375 -87.0440139770507812 102.236434936523438 103 52 37
0.856882333755493164 -16.1592941284179688 26.2453403472900391 57 0 0
6.76285362243652344 2.60386061668395996 9.72454547882080078 215 195 197
-4.32459402084350586 2.42915844917297363 21.1704730987548828 183 100 86
2.17042446136474609 -14.5750465393066406 28.0827426910400391 58 9 7
-1.43087506294250488 -20.3377094268798828 23.1187095642089844 76 18 6
2.37470006942749023 -12.1956577301025391 26.4909820556640625 132 54 28
5.72021961212158203 -3.7535851001739502 20.2593193054199219 86 17 2
3.28383111953735352 8.38683605194091797 26.7613658905029297 164 104 81
-1.62428247928619385 -0.0155721493065357208 21.5440769195556641 201 85 70
-11.6287431716918945 1.72234797477722168 16.2839488983154297 80 36 27
6.80559396743774414 -7.02552223205566406 15.9558315277099609 157 88 73
-1.82839035987854004 -1.57763838768005371 21.4122047424316406 225 129 117
-1.95990705490112305 -52.2467079162597656 77.0704879760742188 102 40 23
1.13900661468505859 -7.07188177108764648 23.0961704254150391 152 54 36
1.96138083934783936 2.65886044502258301 10.9171609878540039 172 93 78
4.03539037704467773 0.883999049663543701 17.4665622711181641 78 14 4
-2.70342016220092773 -1.52792131900787354 21.5159492492675781 219 101 75
1.01225316524505615 -16.0424270629882812 26.4442348480224609 62 3 0
-3.05383157730102539 1.54530203342437744 21.7972164154052734 170 78 66
0.305066823959350586 6.91173219680786133 15.7066202163696289 0 0 0
-4.68378448486328125 1.5995171070098877 20.8897190093994141 160 62 78
-3.22605609893798828 -6.98895978927612305 14.1499662399291992 128 72 58
3.82419037818908691 4.0992274284362793 19.7677459716796875 199 113 86
-2.7892603874206543 10.3614215850830078 25.6194324493408203 69 23 16
-4.29071235656738281 -6.32398605346679688 6.89202070236206055 153 110 111
3.87308502197265625 6.35648345947265625 23.7888641357421875 170 93 77
3.94808220863342285 6.4176173210144043 22.8503608703613281 231 166 148
3.98024797439575195 2.54270219802856445 18.5780925750732422 0 0 0
3.7284543514251709 3.72593116760253906 30.7536792755126953 55 3 1
2.38436412811279297 5.03540134429931641 17.3317852020263672 0 0 0
4.46631526947021484 -6.20565271377563477 27.1680641174316406 133 48 28
-4.89810657501220703 0.888262271881103516 19.5752277374267578 186 84 72
2.09821581840515137 -0.597928643226623535 23.7922248840332031 0 0 0
-1.0875474214553833 7.50002574920654297 25.8393230438232422 123 60 40
-11.9371042251586914 4.64035129547119141 23.4764289855957031 110 50 39
5.92223644256591797 -1.10084998607635498 5.68648052215576172 214 160 158
-5.95659923553466797 0.720519542694091797 21.6229190826416016 0 0 0
-6.97541952133178711 -4.08469104766845703 15.4926967620849609 160 96 87
0.25321882963180542 -26.9881248474121094 32.6041831970214844 60 23 15
3.44450759887695312 2.4598691463470459 17.6109504699707031 0 0 0
1.56528711318969727 5.37369060516357422 16.2265605926513672 0 0 0
-15.7040252685546875 3.55574989318847656 20.1374397277832031 166 121 108
-3.84173583984375 1.64021539688110352 19.8452110290527344 238 240 235
-1.31222879886627197 -1.23031389713287354 22.5133056640625 241 236 240
6.18646001815795898 -6.0230565071105957 18.5769557952880859 169 87 66
-1.74408960342407227 -3.39408397674560547 23.52020263671875 200 94 79
-10.6339292526245117 -1.27032339572906494 17.2046394348144531 0 0 0
1.95299959182739258 5.25084304809570312 11.6928434371948242 214 161 147
-4.20250463485717773 6.03779935836791992 22.8220653533935547 157 76 59
4.98742914199829102 -3.73378205299377441 5.79191207885742188 136 70 54
3.22065615653991699 0.625482916831970215 24.7652797698974609 122 46 25
5.59933614730834961 -4.55117130279541016 18.2990055084228516 151 70 51
-10.7550792694091797 -3.92123103141784668 27.6093463897705078 91 34 25
0.792493820190429688 4.41736602783203125 21.4134693145751953 0 0 0
4.25851774215698242 -16.1636524200439453 35.5930900573730469 73 16 8
-9.49379634857177734 -0.277841567993164062 14.5706911087036133 119 75 69
4.58412647247314453 -5.42615509033203125 25.5543613433837891 70 13 4
-1.64532721042633057 -1.61461496353149414 21.5841312408447266 186 87 93
-1.70643186569213867 -20.0143222808837891 23.9479713439941406 83 24 10
-0.543687522411346436 -18.3082332611083984 23.0065441131591797 44 5 1
-4.41068792343139648 -6.45879650115966797 12.8224372863769531 138 82 85
2.40606307983398438 3.99933719635009766 15.8968219757080078 170 94 70
0.708461582660675049 5.58187580108642578 15.2055997848510742 40 5 7
-0.844299674034118652 -3.71356797218322754 1.05072629451751709 0 0 0
-3.59812188148498535 2.8090512752532959 21.4973106384277344 196 104 90
4.75370407104492188 -3.6929633617401123 2.37144017219543457 0 0 0
5.14639616012573242 -2.83405971527099609 18.4377059936523438 92 26 12
4.59563636779785156 -7.57069635391235352 29.4511470794677734 111 47 30
1.25301277637481689 1.27112281322479248 5.9269556999206543 176 101 88
1.99241912364959717 -24.1211185455322266 25.5680027008056641 92 41 22
-3.81390690803527832 1.29751944541931152 20.0273838043212891 154 56 70
1.79974794387817383 1.54367160797119141 23.8478622436523438 161 70 49
-6.45466804504394531 6.46698474884033203 22.3008060455322266 180 112 99
-2.76383399963378906 1.81769406795501709 19.8131961822509766 172 78 68
7.43801593780517578 4.48396682739257812 12.5790557861328125 215 203 205
-6.23313617706298828 -4.36841249465942383 7.44380760192871094 154 114 119
1.8087470531463623 4.97839546203613281 13.714381217956543 214 150 134
-6.46107673645019531 -4.34851598739624023 7.70496082305908203 162 121 125
2.47136521339416504 5.45855236053466797 18.2421398162841797 171 94 73
3.67587566375732422 -3.7820591926574707 1.31045699119567871 0 0 0
-2.74609994888305664 -8.72467517852783203 14.9943304061889648 161 92 76
4.65437650680541992 1.87511265277862549 20.9490146636962891 84 24 13
-5.45532894134521484 7.68608856201171875 22.6447048187255859 161 95 83
-0.251678466796875 -16.8579502105712891 21.5555210113525391 0 0 0
38.0657272338867188 13.6586275100708008 55.40911865234375 211 177 178
-6.513031005859375 -2.95424914360046387 13.0887651443481445 149 91 79
-0.996035635471343994 -19.6558322906494141 24.0133571624755859 80 36 25
5.23751497268676758 -9.57183837890625 32.2997207641601562 74 15 4
5.22122955322265625 -1.01781046390533447 19.0769462585449219 145 65 44
-10.6753444671630859 3.30670070648193359 24.2359848022460938 126 55 36
-11.9315299987792969 -0.109659217298030853 18.5244541168212891 0 0 0
5.2818145751953125 -1.3850780725479126 17.9679355621337891 143 62 43
10.5250873565673828 -5.22600746154785156 10.4511213302612305 0 0 0
2.90505003929138184 -0.341590464115142822 2.83746600151062012 0 0 2
-2.75846290588378906 1.94523239135742188 21.9278011322021484 190 87 76
-6.95084381103515625 3.38405275344848633 18.4012374877929688 121 51 39
4.63504219055175781 1.39502906799316406 13.4289627075195312 215 148 147
1.63358128070831299 5.49858856201171875 16.5602188110351562 197 131 108
-0.95183330774307251 -2.71883034706115723 21.9927082061767578 189 70 51
-3.07718205451965332 1.58053708076477051 16.0918006896972656 180 87 72
-0.17908063530921936 -19.0539474487304688 26.6417884826660156 43 0 0
8.86486434936523438 -2.62453985214233398 9.92424392700195312 1 1 1
6.58618402481079102 -2.34833407402038574 7.70410442352294922 196 126 116
-10.5291328430175781 0.426057696342468262 15.2083606719970703 0 0 0
0.435310035943984985 -16.2019462585449219 25.8745861053466797 116 57 37
-2.64538025856018066 2.84490156173706055 21.6706256866455078 182 83 77
-0.292915791273117065 -18.1356163024902344 24.2885246276855469 0 0 0
-4.52925348281860352 1.01463913917541504 27.6241245269775391 194 91 82
1.57871353626251221 5.78472566604614258 16.7258834838867188 150 84 68
3.65613198280334473 2.87649250030517578 6.76991367340087891 217 192 188
0.284394890069961548 0.368602633476257324 19.3468379974365234 208 95 79
-7.65852642059326172 13.7154197692871094 17.2416629791259766 147 91 75
-7.75662708282470703 -1.71234560012817383 9.43531036376953125 156 108 98
1.64018011093139648 5.02680253982543945 14.8331356048583984 181 108 91
3.7369084358215332 3.75271487236022949 12.3329486846923828 208 145 136
-1.19135880470275879 -21.6276912689208984 24.3844528198242188 79 34 23
4.57266998291015625 -5.15584278106689453 27.0291538238525391 113 40 23
-7.69931221008300781 0.775637984275817871 21.9868526458740234 178 92 72
-2.91800260543823242 1.83162426948547363 19.2203617095947266 250 200 176
3.89801859855651855 -41.22412109375 46.0339202880859375 0 0 0
4.70639610290527344 -0.167504802346229553 15.27520751953125 192 111 92
0.49731069803237915 -15.5752096176147461 24.1940994262695312 37 2 0
-2.24635100364685059 -2.23518252372741699 22.696990966796875 176 64 50
0.971273541450500488 -4.21799516677856445 22.3847904205322266 171 65 41
-2.36490392684936523 -2.31964898109436035 22.1701145172119141 239 137 122
-4.75071191787719727 -5.34626531600952148 12.886387825012207 135 77 75
-11.7865419387817383 -1.79071581363677979 19.9763317108154297 104 55 46
-2.54409217834472656 -0.997191667556762695 21.2795810699462891 146 55 40
-1.51367568969726562 2.08495616912841797 22.4216403961181641 175 74 64
-7.19958209991455078 6.18010854721069336 23.0759811401367188 115 46 41
-3.87176299095153809 2.2632451057434082 21.7046146392822266 129 30 74
3.35382676124572754 2.1266937255859375 10.831817626953125 161 108 94
2.50050783157348633 1.78957879543304443 12.667388916015625 68 11 2
14.9872446060180664 14.0423765182495117 32.0916252136230469 0 0 0
-9.01945590972900391 -2.10525321960449219 15.5167350769042969 132 75 64
1.23123836517333984 -13.1180582046508789 23.4053306579589844 118 48 36
5.80275297164916992 -0.62504124641418457 6.3309783935546875 182 131 130
3.24727749824523926 2.8358924388885498 13.968022346496582 219 150 135
-1.80201983451843262 -1.91672468185424805 21.7873172760009766 199 82 64
-11.383763313293457 0.421316742897033691 16.7531833648681641 145 101 85
-2.62548136711120605 1.5621941089630127 22.1570091247558594 219 122 106
2.89265322685241699 3.39542579650878906 12.7883405685424805 220 178 179
4.32922983169555664 -1.47346091270446777 4.50263738632202148 163 101 90
-9.51021289825439453 -2.00724673271179199 18.1425457000732422 56 27 26
-10.8236589431762695 -0.586042344570159912 15.5274314880371094 0 0 0
3.3805081844329834 -1.21810662746429443 11.1046466827392578 125 50 31
-8.74292373657226562 -18.6677494049072266 20.8109226226806641 129 84 85
-2.5812079906463623 -8.44271087646484375 14.3250885009765625 132 71 52
10.7231035232543945 -2.85192084312438965 40.4278793334960938 81 18 3
6.60406732559204102 1.58225750923156738 21.1672267913818359 214 142 121
-5.15494871139526367 1.76627802848815918 21.6880874633789062 163 72 68
-3.85365438461303711 6.13165569305419922 23.3032608032226562 178 87 69
-9.51597404479980469 -2.41539311408996582 17.4570980072021484 132 79 66
0.752515196800231934 2.5808255672454834 7.96035099029541016 0 0 0
3.3137049674987793 3.78097105026245117 12.5078020095825195 214 171 168
-3.34093880653381348 1.87339699268341064 20.1211280822753906 123 46 73
-1.31540417671203613 -1.36589157581329346 20.6209659576416016 250 239 198
-6.44921016693115234 1.14843893051147461 23.3880844116210938 201 88 74
-7.32772159576416016 -4.05490398406982422 16.0670146942138672 158 95 87
4.09405326843261719 -18.9021282196044922 21.7142219543457031 0 0 0
4.75047922134399414 1.60308301448822021 32.798797607421875 59 1 0
6.79445695877075195 1.42491054534912109 24.6166210174560547 173 95 82
-0.893634676933288574 -1.19821226596832275 18.7082748413085938 176 84 87
-4.76436424255371094 3.91815090179443359 21.8680076599121094 159 65 55
5.78034448623657227 -23.1961784362792969 32.2276840209960938 71 26 21
-8.74876785278320312 -2.61050677299499512 15.7395515441894531 156 107 92
2.32041597366333008 -0.0713164135813713074 16.140869140625 0 0 0
-9.44949245452880859 -0.475459277629852295 12.0091476440429688 143 96 90
-6.64105844497680664 1.75010526180267334 42.26544189453125 0 0 0
3.85240602493286133 -18.4302845001220703 19.105255126953125 0 0 0
4.64722251892089844 1.57858121395111084 18.7342033386230469 0 0 0
-3.95983648300170898 2.54314827919006348 22.4301490783691406 137 46 72
10.2945184707641602 -11.119293212890625 9.44089794158935547 0 0 0
3.5199732780456543 -3.85730314254760742 20.312530517578125 0 0 0
6.26361656188964844 2.59732723236083984 8.81747245788574219 214 181 179
5.23506069183349609 -1.83433294296264648 5.63594818115234375 153 90 79
0.651440799236297607 6.65690422058105469 15.9609804153442383 0 0 0
-0.875784456729888916 5.13971567153930664 24.3575019836425781 149 70 53
3.34337425231933594 3.01683616638183594 15.3594789505004883 169 91 78
-1.72170686721801758 -0.410151511430740356 1.23380720615386963 158 125 131
-7.46379518508911133 -0.315466612577438354 8.81779766082763672 147 107 105
-4.37397909164428711 1.62233638763427734 20.6008510589599609 247 232 204
-4.20212268829345703 2.07308769226074219 20.2121505737304688 154 70 76
-3.52554535865783691 -7.72848939895629883 15.2886285781860352 135 76 61
2.59379053115844727 -14.6415243148803711 29.530426025390625 0 0 0
8.51653289794921875 -2.94134974479675293 9.92897987365722656 159 101 90
-7.88785791397094727 -0.76315540075302124 9.28149318695068359 151 110 106
-4.17067050933837891 5.83781862258911133 23.1722049713134766 140 71 56
7.83559083938598633 1.34538233280181885 25.5453414916992188 187 109 99
-5.64666748046875 3.42886161804199219 22.0876331329345703 147 53 43
5.29839515686035156 -12.8350934982299805 34.813385009765625 67 17 17
-5.45062971115112305 2.28347277641296387 21.7819194793701172 175 68 57
-4.3113255500793457 1.54227626323699951 22.0648822784423828 241 241 239
26.2182121276855469 -54.3419075012207031 66.317474365234375 80 25 13
0.408094882965087891 -15.1600770950317383 24.7492027282714844 112 37 16
2.01217889785766602 -12.2121391296386719 24.7782917022705078 139 60 39
-13.39056396484375 -2.75023126602172852 29.6755046844482422 31 1 0
-1.5336601734161377 -1.50608944892883301 21.3600101470947266 183 112 142
-2.84196662902832031 0.597556591033935547 21.7793769836425781 148 55 73
9.91176700592041016 -16.0962142944335938 18.5610771179199219 100 34 20
-3.12775468826293945 -0.102084532380104065 21.8413925170898438 226 132 113
2.57975244522094727 -12.4476413726806641 26.1455364227294922 79 15 6
-3.46045398712158203 0.507299721240997314 22.1439571380615234 203 110 110
-3.33278918266296387 2.83912062644958496 22.0227298736572266 213 112 100
-1.35052204132080078 3.84514021873474121 22.5507717132568359 170 76 66
-8.76083564758300781 5.01815319061279297 22.8936519622802734 125 57 44
-4.48237133026123047 1.05943644046783447 21.2641830444335938 198 81 71
6.42717933654785156 -0.4266243577003479 10.2228574752807617 207 150 141
-0.186651557683944702 -17.5812015533447266 25.3880043029785156 123 58 39
-1.16744470596313477 -1.2815319299697876 19.6233959197998047 243 239 235
-4.79143619537353516 -6.21948814392089844 13.9733209609985352 167 87 89
3.8798515796661377 -21.3998317718505859 24.3994178771972656 112 56 39
-5.9536128044128418 -0.839654505252838135 21.8264217376708984 161 56 35
-0.727785944938659668 -22.7290191650390625 27.6564540863037109 77 32 26
-2.43095612525939941 -1.67491233348846436 21.8227901458740234 198 88 75
0.245966717600822449 -13.0791053771972656 22.464752197265625 91 33 21
-2.64383649826049805 0.667527496814727783 20.8205852508544922 251 240 248
-2.64383649826049805 0.667527496814727783 20.8205852508544922 251 240 248
-4.49145174026489258 1.32266926765441895 21.3591709136962891 191 93 87
-3.50887441635131836 2.99100685119628906 22.8767261505126953 213 113 98
3.40828180313110352 3.13783812522888184 17.1679496765136719 0 0 0
-4.4318089485168457 8.41687774658203125 24.3454532623291016 100 35 19
-1.49635171890258789 -0.927410662174224854 21.1388072967529297 184 88 127
5.1023707389831543 0.505006909370422363 21.2760963439941406 76 14 3
-2.05169034004211426 -0.466966003179550171 21.8099346160888672 202 99 101
-0.891723752021789551 -19.678497314453125 24.6846504211425781 93 44 32
16.8019065856933594 -4.83392906188964844 15.3161840438842773 0 0 0
5.05991601943969727 -7.57896661758422852 29.7904205322265625 67 13 1
1.8136218786239624 -2.4897162914276123 23.5042324066162109 202 90 70
-1.22107648849487305 -1.37305653095245361 23.4813251495361328 165 97 146
-2.80324125289916992 0.350553900003433228 21.3592777252197266 253 234 218
-1.62778365612030029 -0.259135335683822632 19.6669349670410156 151 54 38
-4.82105445861816406 1.72202301025390625 22.1234683990478516 255 218 199
6.14918184280395508 3.21090555191040039 9.53860664367675781 0 0 0
1.24436676502227783 7.36231088638305664 29.3097057342529297 68 9 1
-10.2995080947875977 4.16677379608154297 23.6664466857910156 127 57 47
-3.32390809059143066 -1.50238335132598877 22.960479736328125 222 113 92
-4.1330103874206543 1.48200726509094238 21.0608806610107422 172 88 102
-6.88446807861328125 6.94104671478271484 24.0536136627197266 0 0 0
1.51806211471557617 1.9444730281829834 23.7366390228271484 0 0 0
-13.4167881011962891 23.3080883026123047 57.4263839721679688 165 99 85
1.72784173488616943 9.53161144256591797 25.7656612396240234 43 15 12
3.41769051551818848 -1.0896143913269043 2.57333087921142578 0 0 0
-1.76087439060211182 -1.33990645408630371 21.0818271636962891 193 105 107
-2.93006372451782227 1.92418062686920166 21.6730213165283203 188 87 75
12.7273893356323242 -6.39524030685424805 12.7736568450927734 0 0 0
-19.2624416351318359 -49.3851776123046875 61.2497024536132812 122 63 64
42.2777137756347656 -2.04251885414123535 48.0604515075683594 0 0 0
4.614959716796875 1.86685144901275635 34.4512176513671875 0 0 0
-4.60963249206542969 1.36003446578979492 19.8091831207275391 252 195 174
-25.99163818359375 -41.286895751953125 56.2159004211425781 197 145 144
-5.12914466857910156 2.39407682418823242 22.3445549011230469 204 106 97
1.7152099609375 -13.6888628005981445 26.3257503509521484 132 56 33
-2.36025571823120117 -0.13584977388381958 21.5768165588378906 179 94 117
4.75947475433349609 0.0445381253957748413 30.3760433197021484 0 0 0
2.71182608604431152 -3.12546300888061523 23.1525497436523438 165 63 41
6.21860074996948242 -16.8118343353271484 16.0932521820068359 0 0 0
-0.260948300361633301 -0.793783783912658691 -0.537879467010498047 157 118 123
1.94802701473236084 -14.0277099609375 27.8258705139160156 0 0 0
-5.56355047225952148 1.10563313961029053 22.3824634552001953 191 91 76
-1.19108843803405762 -23.8577060699462891 24.4354362487792969 0 0 0
1.06648564338684082 -13.2711334228515625 23.4467926025390625 121 45 31
-10.6108407974243164 0.0637218356132507324 16.1014575958251953 129 85 72
5.20880365371704102 -11.8044767379760742 34.7505760192871094 57 7 1
0.634103953838348389 1.69369924068450928 5.14176464080810547 0 0 0
1.82868623733520508 4.63525629043579102 15.4214210510253906 0 0 0
1.1328660249710083 5.90328884124755859 14.5610942840576172 174 102 87
-3.86606884002685547 0.90418088436126709 23.8454380035400391 0 0 0
-3.13482260704040527 1.76828289031982422 20.8857746124267578 176 87 80
5.62496709823608398 3.84556865692138672 10.0737009048461914 0 0 0
-5.34169197082519531 -1.64143264293670654 5.92517185211181641 0 0 0
-2.34626364707946777 0.288041025400161743 20.9738998413085938 182 98 111
-10.9448947906494141 -0.240379512310028076 18.0406875610351562 0 0 0
4.34377813339233398 -7.51561546325683594 27.8865947723388672 134 48 23
-1.82325446605682373 -2.1278531551361084 22.1830463409423828 205 87 73
9.57906818389892578 -32.7077865600585938 41.5715408325195312 90 40 30
4.02842569351196289 -10.0951499938964844 27.4331779479980469 76 14 5
-0.421556919813156128 3.38935494422912598 23.2153587341308594 158 62 48
4.18196821212768555 -11.9669551849365234 30.80419921875 88 26 13
26.4777793884277344 0.29494243860244751 30.3592815399169922 0 0 0
-1.182090163230896 -1.72951841354370117 21.7827606201171875 205 110 106
2.10214543342590332 -10.2862625122070312 25.1682205200195312 158 68 44
7.13286542892456055 -6.75109672546386719 21.3123035430908203 0 0 0
-4.30314779281616211 1.76971304416656494 20.8639316558837891 244 239 236
-4.985931396484375 -0.209573760628700256 21.1546230316162109 155 61 44
28.2417736053466797 1.76452171802520752 33.0965805053710938 0 0 0
-4.18953466415405273 0.682357490062713623 20.0434513092041016 192 76 59
-4.73117494583129883 1.18814003467559814 23.7946376800537109 213 102 84
-7.11430454254150391 -5.81990432739257812 22.1553955078125 38 9 5
-7.15880823135375977 2.64701986312866211 21.4380359649658203 148 60 50
1.27186107635498047 -2.49971199035644531 8.20193672180175781 79 17 5
-3.1307075023651123 2.07939624786376953 20.9126605987548828 196 115 117
-4.63789892196655273 2.22263503074645996 22.9211406707763672 135 62 90
-0.392826855182647705 -17.4377479553222656 24.2303962707519531 112 52 40
-4.93260812759399414 -0.0177705883979797363 21.5559597015380859 198 87 68
-2.57008647918701172 -3.32619476318359375 28.1257572174072266 220 123 104
1.12615597248077393 -15.9841270446777344 26.7192268371582031 61 1 0
-0.379860579967498779 -0.826153278350830078 5.51088857650756836 156 81 62
11.0004091262817383 -48.4248008728027344 58.3629341125488281 0 0 0
-3.43634152412414551 -1.61276650428771973 22.3571510314941406 200 79 62
4.71068477630615234 0.39812016487121582 15.3048534393310547 164 107 95
26.0347957611083984 -8.35258960723876953 28.9118518829345703 0 0 0
9.21483516693115234 -0.289877563714981079 9.97571563720703125 0 0 0
-4.44365692138671875 -5.65574789047241211 12.8438949584960938 123 55 46
-2.48136210441589355 8.45325279235839844 11.7138586044311523 220 190 182
5.19778633117675781 0.850602090358734131 16.1039295196533203 238 182 179
0.352418750524520874 -22.2255134582519531 26.0150432586669922 84 39 33
-10.73931884765625 -0.371983528137207031 16.7381744384765625 117 72 66
-8.62120437622070312 -2.5180366039276123 17.1387786865234375 0 0 0
20.8668670654296875 -15.0455684661865234 27.6626129150390625 122 59 42
5.45107603073120117 1.14767706394195557 18.6765174865722656 195 119 103
-14.5588169097900391 -0.231324687600135803 22.8870449066162109 0 0 0
4.63760662078857422 -0.959084093570709229 17.7215347290039062 0 0 0
-4.94780969619750977 7.01839399337768555 23.5740699768066406 132 64 53
1.13477540016174316 -5.54605245590209961 22.5972785949707031 146 23 8
8.31394004821777344 36.8704605102539062 83.1007843017578125 0 0 0
3.26970863342285156 2.48241996765136719 26.5694961547851562 117 44 27
0.465682178735733032 5.79414606094360352 11.790217399597168 220 170 148
3.14786148071289062 -10.3647584915161133 25.9010353088378906 129 48 29
0.993447184562683105 2.9410405158996582 15.4619970321655273 0 0 0
-2.0985562801361084 5.95854759216308594 23.7171840667724609 148 66 54
-7.86328220367431641 5.13714790344238281 22.2191753387451172 134 64 52
-12.0428524017333984 -4.73305273056030273 29.9117469787597656 24 0 0
-8.45277595520019531 -2.94575214385986328 17.5917301177978516 52 17 14
-10.2176074981689453 -4.00292587280273438 26.8710002899169922 91 32 28
35.6802902221679688 -12.6266727447509766 41.0204124450683594 2 2 0
40.7968177795410156 -0.771173596382141113 48.4895973205566406 3 0 2
-3.4103856086730957 -23.1115665435791016 26.5915431976318359 0 0 0
-9.21426010131835938 4.7034754753112793 22.4458026885986328 188 122 110
72.6575164794921875 -24.0197906494140625 83.1496200561523438 170 107 92
-2.99124455451965332 -1.75203943252563477 21.991119384765625 210 87 71
-9.32163906097412109 -2.60197758674621582 17.5543842315673828 175 126 113
-8.61557769775390625 -5.94405984878540039 18.2469024658203125 163 118 115
41.5229530334472656 1.67168736457824707 50.4155311584472656 0 1 5
-11.3322477340698242 -4.22856330871582031 29.0723667144775391 91 32 26
42.6384086608886719 -7.31744670867919922 50.6458015441894531 203 139 129
-0.226423919200897217 0.013627912849187851 18.64849853515625 212 110 96
-3.74473738670349121 1.68581259250640869 20.6869659423828125 180 104 112
-3.90520381927490234 -8.58938121795654297 17.0558643341064453 62 11 7
3.69599342346191406 -9.48539161682128906 26.2095756530761719 67 11 6
-6.7723541259765625 -4.48416996002197266 14.4024381637573242 0 0 0
1.63010883331298828 -37.7012672424316406 58.7892379760742188 60 1 0
29.8515186309814453 -10.258122444152832 35.70513916015625 172 107 89
-2.82123970985412598 1.88164365291595459 20.0792922973632812 225 146 139
1.16170883178710938 5.52674245834350586 14.9481267929077148 196 136 110
-5.62895727157592773 -4.57079029083251953 13.0720558166503906 147 93 91
-0.662978172302246094 -0.285416752099990845 22.2665843963623047 233 138 120
3.34852123260498047 1.54462206363677979 26.031005859375 0 0 0
-13.6853103637695312 8.7380218505859375 33.8046875 126 53 44
-0.606885612010955811 -0.420741498470306396 18.726226806640625 206 105 101
-13.691502571105957 -0.123296104371547699 22.4837131500244141 2 0 1
-3.96690535545349121 2.45075392723083496 21.4049930572509766 220 127 117
0.273354321718215942 0.590244948863983154 23.53924560546875 144 56 37
-3.33397197723388672 0.922320783138275146 19.3193988800048828 0 0 0
0.336071223020553589 -0.82117617130279541 0.893866360187530518 76 29 23
3.1401984691619873 3.76060771942138672 27.8392353057861328 0 0 0
11.6636867523193359 -11.6554288864135742 20.0314674377441406 141 83 71
3.5403745174407959 -11.7264776229858398 28.0101661682128906 63 8 1
4.68372106552124023 1.51884627342224121 13.4061269760131836 217 157 159
6.91372346878051758 0.709732949733734131 29.4796485900878906 71 9 0
-3.16041946411132812 2.90280532836914062 20.8130474090576172 173 85 70
10.9639787673950195 -7.31244707107543945 14.0371246337890625 119 57 36
24.1307220458984375 -15.8656959533691406 31.2340297698974609 121 60 42
-8.82016944885253906 -1.37720048427581787 14.7963752746582031 0 0 0
4.19975996017456055 -2.11005139350891113 27.2446422576904297 0 0 0
6.43166589736938477 -19.9413242340087891 22.7782840728759766 83 38 19
3.44133496284484863 3.61922574043273926 16.586517333984375 0 0 0
-1.64423930644989014 -2.59987378120422363 22.0016975402832031 216 116 93
-16.3663139343261719 4.51868247985839844 21.5553665161132812 0 0 0
-0.309403508901596069 -0.75397181510925293 5.52845287322998047 57 9 9
-1.22956478595733643 -0.81578528881072998 20.3450374603271484 183 102 115
-3.39337968826293945 0.791246116161346436 21.8984012603759766 194 101 120
2.30666112899780273 1.26345241069793701 23.9338741302490234 188 85 66
-7.56801748275756836 -5.83048295974731445 15.7320289611816406 140 91 94
-12.0750904083251953 3.85435247421264648 24.3270950317382812 132 69 61
-3.74788379669189453 1.54608607292175293 19.1324710845947266 121 35 42
-2.37796521186828613 0.827504158020019531 21.997314453125 234 145 127
-4.45851469039916992 1.58795583248138428 21.2809638977050781 238 240 239
-4.32082605361938477 -8.98861885070800781 17.66961669921875 131 77 61
-15.59588623046875 -3.80799961090087891 27.1477546691894531 57 17 17
