ply
format ascii 1.0
element vertex 664
property float x
property float y
property float z
property uchar red
property uchar green
property uchar blue
end_header
-15.1735563278198242 -1.96472752094268799 227.033477783203125 157 160 163
5.18262004852294922 -5.45126438140869141 196.69024658203125 120 111 96
0.388256490230560303 -1.37917840480804443 206.576385498046875 124 121 106
-4.17715930938720703 -2.11582517623901367 212.331649780273438 140 141 136
-8.39926433563232422 0.60001528263092041 218.398712158203125 145 141 138
6.11499261856079102 -0.988750934600830078 196.568283081054688 120 112 101
-4.30869913101196289 2.11375689506530762 213.344696044921875 143 130 122
6.12192726135253906 -0.9872702956199646 196.844619750976562 120 112 101
11.1490001678466797 0.944818735122680664 184.615707397460938 100 89 71
-4.31623601913452148 2.11859822273254395 213.580215454101562 143 130 122
12.7121572494506836 -0.862431645393371582 188.542999267578125 103 86 68
12.4984712600708008 -1.69598615169525146 182.060836791992188 96 83 61
-3.98998761177062988 2.33069205284118652 213.462921142578125 124 110 88
11.449620246887207 -0.782956421375274658 182.922134399414062 94 131 169
-10.1842041015625 -0.516002118587493896 219.92852783203125 144 138 128
-7.65256357192993164 -0.558797955513000488 217.056930541992188 123 109 96
-11.2904558181762695 -8.32997798919677734 216.211532592773438 137 133 132
0.791429102420806885 -1.43139612674713135 205.996597290039062 143 140 128
-5.56067514419555664 -0.658923864364624023 214.704544067382812 142 141 136
0.23532375693321228 -5.01657676696777344 202.855178833007812 143 145 144
6.95170688629150391 4.29369735717773438 191.565872192382812 55 74 91
-4.30879640579223633 -0.303255140781402588 213.119491577148438 137 134 136
-12.7520380020141602 2.37931442260742188 225.489837646484375 158 159 147
8.18711185455322266 -2.8165740966796875 194.378158569335938 132 133 135
4.74597597122192383 2.74865126609802246 199.874557495117188 136 128 119
-12.5945720672607422 -3.54499626159667969 221.804489135742188 142 143 138
5.51015996932983398 2.70547151565551758 198.644241333007812 129 121 106
-12.5885801315307617 -3.54166054725646973 221.695510864257812 142 143 138
10.6432285308837891 -2.28539013862609863 184.024581909179688 115 144 167
2.71096038818359375 -2.46897983551025391 201.965530395507812 122 113 104
-7.18894767761230469 -2.66988444328308105 215.800048828125 138 139 134
2.21778202056884766 0.961820662021636963 200.23468017578125 121 112 105
-8.75386142730712891 1.69788777828216553 219.2930908203125 139 129 117
-7.22480916976928711 -2.6748204231262207 215.748580932617188 138 139 134
-6.50804853439331055 -7.98302078247070312 211.351898193359375 116 106 94
-5.54504108428955078 -2.35651612281799316 212.8067626953125 143 145 142
-15.6807832717895508 1.90440976619720459 227.92449951171875 159 154 143
-10.5385818481445312 -2.30090713500976562 220.48223876953125 140 143 134
-16.9097709655761719 4.01034736633300781 233.0181884765625 153 149 137
-15.9530105590820312 -1.96147119998931885 228.02581787109375 136 127 118
-16.9191112518310547 4.00898456573486328 233.107208251953125 153 149 137
-10.5333185195922852 -1.58708405494689941 220.800537109375 142 143 130
-12.7915868759155273 4.05086088180541992 225.410568237304688 155 149 135
-4.0112614631652832 -1.39528799057006836 210.794937133789062 125 113 100
-9.09019374847412109 -0.210059210658073425 220.221389770507812 141 134 116
-0.803611278533935547 -1.12254929542541504 208.165817260742188 127 118 103
-0.218166634440422058 -1.26862668991088867 206.365692138671875 146 149 147
-13.6046323776245117 -1.02832984924316406 225.504165649414062 129 116 102
5.13000011444091797 -3.3466341495513916 198.955963134765625 123 117 101
-16.2945613861083984 -3.49920368194580078 228.167526245117188 144 139 136
-8.09591102600097656 -2.29559826850891113 216.366104125976562 145 145 135
5.56494998931884766 -2.53039097785949707 198.072540283203125 135 137 134
5.56494998931884766 -2.53039097785949707 198.072540283203125 135 137 134
-5.18783855438232422 1.15360057353973389 214.587203979492188 127 112 89
-9.00425624847412109 1.84490287303924561 221.368240356445312 116 107 98
-2.29413080215454102 -2.28794050216674805 208.474456787109375 135 135 133
-1.49862766265869141 -2.22065472602844238 207.69879150390625 122 112 100
-18.6862678527832031 0.232300430536270142 232.490798950195312 156 151 144
-12.9834775924682617 -2.42052388191223145 225.20904541015625 148 150 147
-4.1775364875793457 -2.12338781356811523 212.612701416015625 140 141 136
-8.0397491455078125 -3.22144412994384766 217.410079956054688 143 143 141
-0.160521283745765686 3.64442181587219238 208.650787353515625 128 115 95
6.65510654449462891 -0.206396996974945068 197.500808715820312 137 132 127
-4.1436309814453125 -2.1158287525177002 211.902786254882812 140 141 136
9.98596668243408203 -1.49096977710723877 186.118453979492188 39 47 45
5.11660146713256836 -1.53102385997772217 199.524642944335938 122 113 105
11.9738912582397461 -1.15126514434814453 181.711288452148438 21 27 37
5.93487453460693359 -1.49623739719390869 198.190475463867188 132 133 128
1.48097348213195801 -1.01880323886871338 205.10052490234375 123 122 104
5.33689451217651367 0.670967757701873779 199.993576049804688 118 109 94
2.24387359619140625 -0.999365508556365967 203.047149658203125 135 144 141
0.631456077098846436 0.394632041454315186 204.840957641601562 144 151 146
-8.70112419128417969 -6.03657388687133789 216.162628173828125 140 130 129
-16.1737003326416016 -0.711991965770721436 229.484481811523438 148 147 143
-14.9605159759521484 0.148754850029945374 228.04364013671875 159 159 161
-1.06249833106994629 0.983015596866607666 207.904830932617188 148 144 145
-16.1737003326416016 -0.711991965770721436 229.484481811523438 148 147 143
2.70974445343017578 -2.51653623580932617 203.408004760742188 126 117 102
-8.26862049102783203 -0.762845396995544434 218.401077270507812 149 147 142
1.28109025955200195 -0.467383354902267456 204.69873046875 138 144 139
11.8163309097290039 -0.868294119834899902 182.2061767578125 28 39 46
-7.98877429962158203 -0.167199373245239258 217.161483764648438 129 108 87
-15.7293815612792969 -2.45335578918457031 227.213485717773438 147 147 147
0.417654305696487427 2.92362737655639648 208.018951416015625 140 141 134
6.90427446365356445 -1.52820348739624023 196.198257446289062 120 111 96
-12.5754241943359375 -1.3071749210357666 223.752395629882812 148 149 143
-0.0446650534868240356 0.235777154564857483 206.920333862304688 125 120 103
-3.60041117668151855 -0.939954519271850586 211.932998657226562 138 135 132
-0.0541067309677600861 0.232189640402793884 207.115875244140625 125 120 103
-0.212529018521308899 -0.790649473667144775 206.982955932617188 122 115 99
3.40758442878723145 0.317086070775985718 201.006134033203125 139 144 138
-5.10099554061889648 3.73205971717834473 214.562454223632812 147 139 126
-3.59125328063964844 -0.948952615261077881 212.11846923828125 143 136 130
-1.79787468910217285 -0.182895153760910034 208.743072509765625 140 146 136
-3.37689709663391113 0.564708232879638672 212.464813232421875 125 111 93
0.875807106494903564 -2.36759090423583984 203.775192260742188 130 117 108
4.73816108703613281 0.583273708820343018 197.605636596679688 144 146 143
0.875807106494903564 -2.36759090423583984 203.775192260742188 130 117 108
-11.1098804473876953 -1.5982205867767334 223.824234008789062 140 139 134
-18.1736850738525391 0.817227542400360107 232.122177124023438 158 149 140
1.43279397487640381 0.316619217395782471 203.412567138671875 125 117 106
-5.37124252319335938 3.13294267654418945 215.534027099609375 143 139 127
2.5833289623260498 -2.12756633758544922 202.594268798828125 141 138 132
-6.31136226654052734 -0.476546883583068848 216.770950317382812 131 128 121
-0.467542856931686401 1.80098521709442139 207.9112548828125 124 113 92
-7.24419879913330078 -4.98672628402709961 208.9603271484375 98 117 149
10.2746849060058594 -1.89785373210906982 183.657943725585938 69 92 113
-18.8093376159667969 3.17618775367736816 233.265243530273438 154 146 135
-4.7895655632019043 1.57304191589355469 213.869644165039062 149 147 135
9.98312854766845703 2.38745546340942383 186.78936767578125 65 97 122
-7.14908933639526367 3.49076509475708008 218.635101318359375 144 137 122
3.30819010734558105 4.05146455764770508 202.337142944335938 138 126 110
11.2169160842895508 2.94172406196594238 189.635116577148438 117 105 93
-3.92236709594726562 -0.858660399913787842 211.3040771484375 151 152 147
4.15952587127685547 2.0849602222442627 200.800888061523438 116 104 88
7.61254739761352539 -0.310691654682159424 195.606735229492188 131 122 117
5.80522727966308594 -4.77646303176879883 196.629409790039062 142 142 144
-1.04525399208068848 -2.01141238212585449 205.93426513671875 142 139 124
-9.97398281097412109 -1.42817783355712891 219.48553466796875 116 109 101
-12.9899492263793945 -2.42095708847045898 225.317764282226562 153 153 151
-7.36237716674804688 -4.91745424270629883 207.1043701171875 113 109 100
-16.4186496734619141 -2.39055705070495605 229.581405639648438 158 157 153
6.74019956588745117 2.32791829109191895 197.578872680664062 104 87 69
-17.1232242584228516 -0.934955239295959473 230.273239135742188 133 125 104
-16.4731998443603516 1.93230712413787842 229.763137817382812 135 123 107
-3.10469603538513184 -0.327316522598266602 211.75555419921875 138 134 123
-10.9630393981933594 -2.64374876022338867 220.6646728515625 150 152 139
-17.6241035461425781 -8.07045745849609375 225.714569091796875 150 150 148
9.71504592895507812 -0.676149606704711914 185.01165771484375 136 170 196
10.6538820266723633 0.960143506526947021 183.322616577148438 99 132 162
6.48039436340332031 -0.444664716720581055 197.712860107421875 136 140 139
5.18262004852294922 -5.45126438140869141 196.69024658203125 120 111 96
-10.3974924087524414 -2.8645026683807373 219.736419677734375 151 145 138
-17.1153831481933594 -0.937767922878265381 230.17254638671875 133 125 105
-6.68591070175170898 -1.63934504985809326 216.010147094726562 141 141 131
-11.9342231750488281 -4.19614028930664062 221.78070068359375 147 137 134
-17.7627334594726562 -1.14488637447357178 230.78277587890625 156 149 139
12.4818925857543945 -0.60642009973526001 188.145065307617188 104 90 70
-5.66141080856323242 3.59615588188171387 216.540985107421875 150 143 133
-17.7320327758789062 -0.571968555450439453 230.111984252929688 157 157 147
2.42827916145324707 -0.137564435601234436 203.895050048828125 119 115 104
7.81018829345703125 0.259078085422515869 195.622543334960938 121 113 111
-9.976776123046875 -0.962225556373596191 220.017074584960938 110 103 91
13.4150724411010742 -0.254076510667800903 186.493698120117188 123 110 94
12.02471923828125 -1.56997132301330566 181.982040405273438 52 73 109
-8.11862468719482422 -2.32240843772888184 217.167709350585938 145 145 135
-1.44524288177490234 -5.33404350280761719 206.280258178710938 138 140 138
-17.0357494354248047 -1.84468960762023926 228.98443603515625 155 153 148
9.23032188415527344 0.141405820846557617 188.668487548828125 77 96 106
-2.70379257202148438 -3.15280818939208984 210.127975463867188 143 143 141
0.998049795627593994 2.52336573600769043 205.5809326171875 148 142 128
-17.0922718048095703 -2.40243148803710938 229.613906860351562 130 119 100
4.20198774337768555 -1.79709064960479736 200.0416259765625 143 146 145
12.5085067749023438 0.0216690320521593094 188.440933227539062 104 92 80
1.44524192810058594 -6.18022298812866211 201.298355102539062 141 136 133
5.45867252349853516 0.320070266723632812 197.89471435546875 139 136 127
10.5117912292480469 -2.39355683326721191 183.923416137695312 163 174 196
12.8455953598022461 -2.129791259765625 184.250717163085938 104 100 91
12.1509056091308594 -1.8444828987121582 181.730148315429688 35 51 76
10.1275224685668945 -1.79165160655975342 183.653213500976562 121 127 139
10.2328720092773438 -1.80437946319580078 183.636322021484375 75 102 129
11.2801179885864258 0.164721056818962097 182.996383666992188 62 79 85
12.0193157196044922 -1.45473277568817139 181.9605712890625 62 77 110
-7.59181594848632812 -6.30039596557617188 214.404632568359375 122 114 103
11.8349380493164062 0.485460251569747925 187.645751953125 112 99 83
11.1316013336181641 0.464448302984237671 183.357986450195312 69 83 94
12.3390312194824219 -1.8756488561630249 181.208572387695312 101 110 116
-5.22590017318725586 -4.26452159881591797 207.409042358398438 69 68 67
-3.64392352104187012 1.45311117172241211 213.97576904296875 120 107 90
7.56527042388916016 -1.60729050636291504 194.93280029296875 128 129 123
12.3692646026611328 -2.25856494903564453 181.92559814453125 234 246 255
-10.91558837890625 -3.70496034622192383 221.177078247070312 139 131 118
-0.879482626914978027 -2.50496315956115723 207.570465087890625 152 151 149
-3.34901857376098633 -8.10102558135986328 202.741119384765625 68 75 82
7.43904781341552734 -4.57344818115234375 194.071929931640625 127 121 105
0.785586118698120117 -1.43896722793579102 206.19415283203125 144 142 135
4.55735111236572266 -4.18824434280395508 200.67572021484375 153 157 158
4.48979759216308594 -2.73927879333496094 199.723892211914062 136 135 130
12.2838649749755859 -2.01500368118286133 182.03314208984375 28 48 72
-2.83104515075683594 2.0852203369140625 210.831802368164062 142 134 123
-2.31320309638977051 -5.84183454513549805 206.993545532226562 136 135 131
3.7542874813079834 -1.19769692420959473 200.535537719726562 120 121 113
10.600224494934082 -2.55652856826782227 183.232513427734375 114 125 143
-9.87475109100341797 -1.18044507503509521 218.560882568359375 110 106 94
6.15751028060913086 -4.17574977874755859 195.509857177734375 141 144 142
9.97720241546630859 -3.37037348747253418 192.44110107421875 127 119 106
0.0674130991101264954 -2.75499176979064941 207.10736083984375 145 142 137
-2.62277722358703613 -2.3047950267791748 210.314132690429688 141 141 139
-8.45720672607421875 -1.82688236236572266 218.251235961914062 152 152 142
3.21865129470825195 3.24984574317932129 204.54327392578125 119 109 97
13.4346723556518555 -0.256958842277526855 186.696365356445312 121 109 96
10.3871326446533203 1.5427011251449585 186.208450317382812 108 139 173
-5.0392756462097168 0.0189884211868047714 214.113540649414062 140 136 127
8.65277957916259766 1.01531600952148438 185.574325561523438 86 103 112
10.918553352355957 -2.64241933822631836 183.496185302734375 173 186 197
-3.2688601016998291 -4.06039524078369141 209.776016235351562 124 119 115
-0.428391546010971069 -4.2990107536315918 206.559982299804688 136 140 141
5.79380226135253906 -3.42151403427124023 196.74517822265625 136 145 140
2.89776468276977539 -3.66161394119262695 202.500457763671875 143 148 144
14.5417404174804688 -0.882300376892089844 184.168441772460938 106 91 71
2.89776468276977539 -3.66161394119262695 202.500457763671875 143 148 144
13.71197509765625 -3.60299086570739746 185.944473266601562 111 100 82
5.88749027252197266 -3.19698929786682129 200.059219360351562 124 121 114
8.36981868743896484 -3.0344841480255127 194.63568115234375 132 129 123
9.99179553985595703 2.62996697425842285 184.94171142578125 62 80 92
1.50524723529815674 -1.80185508728027344 203.759918212890625 141 144 137
-5.46201467514038086 -2.64812541007995605 213.073944091796875 127 120 110
-11.4653730392456055 -1.68389034271240234 223.707382202148438 155 154 154
13.0995540618896484 -5.59479999542236328 185.049774169921875 132 132 130
0.130015537142753601 -4.33469486236572266 206.02117919921875 121 113 101
-17.7678127288818359 -1.14547348022460938 230.874984741210938 155 148 140
12.2472009658813477 -0.186367630958557129 188.37261962890625 102 94 81
-11.8273906707763672 -0.241619333624839783 220.968002319335938 151 150 146
9.45355319976806641 3.1819612979888916 183.928192138671875 0 0 0
-3.80482602119445801 -4.07701015472412109 210.200576782226562 135 145 147
8.00614833831787109 -3.73876380920410156 194.04351806640625 122 110 96
-9.63233566284179688 -0.395340144634246826 218.998672485351562 0 0 0
-1.86206305027008057 -4.20441579818725586 208.164962768554688 121 115 99
8.85652828216552734 -3.31712007522583008 192.94189453125 135 126 120
-8.91822910308837891 -4.10283803939819336 217.83489990234375 141 138 133
-3.66644167900085449 -0.340490043163299561 212.613494873046875 127 111 98
-7.56326961517333984 -3.8076927661895752 216.399368286132812 123 114 98
2.57486128807067871 -2.12060141563415527 202.382339477539062 141 134 129
-18.5886268615722656 -1.8187943696975708 230.945510864257812 153 155 144
-10.2806978225708008 -1.93666970729827881 222.393508911132812 114 106 95
-3.28796482086181641 -6.2952418327331543 210.965286254882812 131 125 111
-0.992666542530059814 -3.9610753059387207 206.550384521484375 143 144 142
10.8901100158691406 0.830533027648925781 183.757080078125 21 40 58
-0.992895543575286865 -3.96080636978149414 206.502227783203125 143 144 142
-17.7431373596191406 -4.67489862442016602 229.598464965820312 126 113 94
-13.0665340423583984 1.31794333457946777 225.00372314453125 153 150 141
-4.83940458297729492 -3.88060450553894043 210.85711669921875 130 130 122
5.128936767578125 -3.35653090476989746 198.7933349609375 126 116 106
5.79740428924560547 -3.4260561466217041 197.016525268554688 137 141 142
-3.27498221397399902 -2.76548504829406738 208.788558959960938 141 144 137
3.98422861099243164 -0.344929695129394531 201.14044189453125 128 120 108
-16.4624671936035156 -2.78563165664672852 228.518020629882812 135 124 106
12.2733182907104492 -0.0597089082002639771 193.134567260742188 84 76 65
-3.48509740829467773 -1.20204246044158936 211.57666015625 141 145 140
-3.6701047420501709 -0.342899858951568604 212.826553344726562 122 110 94
-16.7178287506103516 -4.95212507247924805 227.425827026367188 150 147 141
4.46989870071411133 -3.53015255928039551 198.826507568359375 142 144 143
6.57352209091186523 -3.37053966522216797 196.294891357421875 124 111 103
-4.12572479248046875 -2.1058964729309082 212.044113159179688 141 139 142
-6.2614288330078125 -4.60561037063598633 207.93902587890625 152 177 183
-13.0088043212890625 -0.530133962631225586 224.9371337890625 149 149 147
-4.91327571868896484 -1.52216088771820068 212.658172607421875 138 135 130
13.1132602691650391 -1.37073075771331787 195.64520263671875 0 0 0
10.4379682540893555 3.35650825500488281 194.447463989257812 100 85 72
-4.90535736083984375 -1.51912713050842285 212.615402221679688 138 135 130
-4.75731515884399414 -0.843976438045501709 213.94677734375 126 117 102
5.22028970718383789 -1.92502641677856445 198.54864501953125 136 137 132
12.353062629699707 -2.15047860145568848 182.490188598632812 94 117 140
-4.75696420669555664 -0.845180332660675049 214.021255493164062 126 117 102
-2.37447953224182129 -0.69709932804107666 210.558563232421875 122 118 106
-2.3775179386138916 -0.706465005874633789 210.467193603515625 122 118 106
-9.12936782836914062 1.81150805950164795 220.57757568359375 114 106 93
9.70842647552490234 -0.848074257373809814 185.27264404296875 90 102 114
-5.83332586288452148 -4.48863506317138672 207.805587768554688 49 62 75
-7.1732635498046875 -5.11452913284301758 210.248031616210938 185 215 249
-13.7879962921142578 1.89638793468475342 227.966567993164062 146 147 142
10.7048110961914062 -2.66239643096923828 183.712356567382812 161 179 194
-6.72425270080566406 -5.39764642715454102 208.445419311523438 220 255 255
-6.69207954406738281 -5.32299232482910156 208.741790771484375 78 116 139
10.553797721862793 1.60307490825653076 180.362640380859375 35 30 26
-5.58878231048583984 -4.36954069137573242 206.917938232421875 38 44 44
4.15952587127685547 2.0849602222442627 200.800888061523438 116 104 88
11.2480306625366211 -2.5145878791809082 183.009429931640625 87 111 145
-5.23127651214599609 -4.74853181838989258 206.568862915039062 52 66 71
11.2052183151245117 -2.56220722198486328 182.970489501953125 186 198 210
2.72234916687011719 3.33148384094238281 203.004074096679688 141 131 129
12.4852418899536133 -1.99609816074371338 182.953216552734375 85 94 108
-11.3703365325927734 2.79956650733947754 225.394256591796875 150 155 149
3.11014175415039062 -7.11740446090698242 197.691436767578125 143 147 146
12.11138916015625 -0.62669837474822998 185.975601196289062 25 20 16
-7.04841709136962891 -5.46158742904663086 208.776885986328125 55 74 114
-6.61686420440673828 -4.68093442916870117 207.136520385742188 177 198 200
-8.21908664703369141 1.76015007495880127 219.173248291015625 148 139 123
11.2358083724975586 -5.91352939605712891 187.734085083007812 133 133 131
-6.90934610366821289 -5.47721958160400391 209.362640380859375 235 255 255
-7.16709327697753906 -5.29331445693969727 209.315536499023438 55 73 108
-14.995844841003418 -8.51328468322753906 224.132736206054688 144 146 147
12.3812122344970703 -2.25731563568115234 182.019638061523438 240 255 255
-7.58175849914550781 1.69057738780975342 219.90887451171875 124 111 92
12.0508575439453125 -1.92677497863769531 182.543716430664062 112 145 178
-10.219517707824707 -3.49328970909118652 219.391937255859375 101 93 82
-2.24539065361022949 -2.01962876319885254 208.43731689453125 149 145 135
-6.80018377304077148 -5.14325523376464844 209.35955810546875 102 131 163
-7.3047943115234375 -4.90289402008056641 209.329574584960938 52 59 83
-9.57501888275146484 -4.83935403823852539 219.310958862304688 135 137 123
-2.29302334785461426 -4.47870588302612305 208.714599609375 144 149 144
-5.58272838592529297 -4.51073789596557617 208.236404418945312 71 86 103
-1.76484620571136475 -4.99541139602661133 207.393264770507812 141 143 140
-10.4735784530639648 -6.36342239379882812 219.127227783203125 102 92 80
-4.38621664047241211 -4.50669097900390625 211.872894287109375 130 126 116
-10.2408275604248047 0.183072865009307861 221.705078125 159 156 144
8.4368743896484375 1.89644813537597656 189.91693115234375 147 179 207
-1.61523747444152832 -3.48238992691040039 208.895187377929688 144 148 147
-9.60341262817382812 3.68432307243347168 221.486587524414062 131 117 98
-2.92404556274414062 -5.43273639678955078 209.350494384765625 139 133 128
-2.1337273120880127 3.63304901123046875 210.414642333984375 146 140 128
0.776751339435577393 -1.06762707233428955 205.257720947265625 167 173 169
5.61094856262207031 -5.39902925491333008 195.129974365234375 137 134 129
10.950836181640625 0.936175763607025146 183.679214477539062 22 36 45
8.42869949340820312 -5.12060451507568359 191.805343627929688 125 117 107
1.4079282283782959 1.62143135070800781 205.3299560546875 121 112 95
-0.64573216438293457 -4.9559636116027832 205.480331420898438 137 139 138
11.3881101608276367 -2.51819849014282227 183.184234619140625 152 176 199
5.80193090438842773 -4.77503252029418945 196.570556640625 142 142 144
4.0312199592590332 2.5236814022064209 201.5765380859375 134 134 126
10.1176242828369141 -3.98462653160095215 190.7987060546875 108 100 84
10.1176242828369141 -3.98462653160095215 190.7987060546875 108 100 84
10.1230020523071289 2.28742480278015137 184.704803466796875 61 92 112
-8.74689292907714844 -3.52910494804382324 216.90533447265625 140 137 128
6.58768606185913086 -0.972626030445098877 195.109100341796875 130 135 131
4.29069328308105469 2.94561243057250977 201.466079711914062 115 106 91
12.6079301834106445 -4.56408405303955078 186.96893310546875 134 135 137
10.5039958953857422 2.16816830635070801 187.173599243164062 38 33 38
3.68913030624389648 -4.69559812545776367 200.174072265625 139 141 138
6.04144287109375 3.40779948234558105 198.923660278320312 126 118 115
-13.8659648895263672 -5.48060941696166992 224.217147827148438 135 128 110
7.26638412475585938 -4.07029962539672852 194.87066650390625 126 118 105
-7.17187166213989258 -1.95937037467956543 216.361663818359375 148 139 132
7.18402767181396484 -3.30780529975891113 194.4534912109375 139 141 136
-6.85586977005004883 -4.98386240005493164 209.303787231445312 86 116 140
-3.26781821250915527 -2.75831270217895508 208.92144775390625 148 151 144
10.2231960296630859 -1.75751578807830811 184.399185180664062 74 95 116
5.74311399459838867 0.00508375559002161026 197.592605590820312 129 134 128
7.02827787399291992 3.63126349449157715 197.95068359375 114 107 93
-12.3754892349243164 -5.19356250762939453 222.953826904296875 125 113 92
-14.4669675827026367 -5.03184080123901367 226.935882568359375 159 156 154
-1.86206305027008057 -4.20441579818725586 208.164962768554688 121 115 99
-9.12606906890869141 -0.209059834480285645 220.72100830078125 140 134 122
-5.93671798706054688 3.96938538551330566 216.447052001953125 127 111 86
1.23008358478546143 -4.42491817474365234 205.38616943359375 145 147 146
11.417877197265625 -3.39583826065063477 188.411819458007812 127 120 112
-15.5396089553833008 -5.13479280471801758 226.42462158203125 128 118 106
5.89164066314697266 -0.290706366300582886 91.7076873779296875 0 0 0
5.34410524368286133 -0.320718228816986084 200.238128662109375 121 113 100
-2.56745457649230957 -4.77181053161621094 208.703079223632812 136 141 136
5.44834375381469727 0.332114249467849731 198.403411865234375 132 131 128
-6.81939697265625 -5.14502096176147461 208.719757080078125 84 116 139
6.53708124160766602 1.07246661186218262 145.62347412109375 0 0 0
-6.826629638671875 -5.05891847610473633 208.385421752929688 149 180 202
-1.11265599727630615 2.98353004455566406 209.42535400390625 148 147 143
10.8795928955078125 -2.61003899574279785 183.83282470703125 67 91 115
12.2710323333740234 -2.22736477851867676 181.91510009765625 39 75 99
11.0745029449462891 -2.59548187255859375 183.103866577148438 131 154 175
-2.35705971717834473 4.44052457809448242 211.533950805664062 127 120 102
10.5008134841918945 -2.22425079345703125 184.513168334960938 77 94 123
0.122585251927375793 -5.85354900360107422 202.756210327148438 123 120 115
12.3303728103637695 -1.56644237041473389 182.45391845703125 24 19 14
14.5542440414428711 3.88741517066955566 184.863677978515625 128 127 122
6.15287542343139648 1.70130884647369385 196.936492919921875 126 119 111
10.8213768005371094 -2.66305971145629883 183.554824829101562 162 176 187
2.42686963081359863 -0.13625819981098175 204.089614868164062 119 115 104
10.436182975769043 1.51849842071533203 185.182754516601562 46 80 109
10.389399528503418 1.75634872913360596 185.149948120117188 74 97 113
10.8472604751586914 0.835320234298706055 183.440841674804688 28 48 72
10.7494058609008789 -2.32782363891601562 189.724258422851562 147 154 168
10.2527389526367188 1.86348342895507812 186.255233764648438 92 127 156
14.0378360748291016 1.2645256519317627 184.950241088867188 135 138 132
12.6020174026489258 -2.24631905555725098 182.638748168945312 19 24 29
1.51852190494537354 1.94397568702697754 205.406219482421875 139 136 128
10.3612146377563477 -1.80129599571228027 183.5875244140625 133 165 192
-7.14310169219970703 -6.42672872543334961 215.427093505859375 109 97 73
11.8127002716064453 -1.23555755615234375 182.6431884765625 83 117 146
-0.840498566627502441 1.29141747951507568 207.785736083984375 135 132 123
-7.13704729080200195 -5.07511663436889648 206.40777587890625 59 73 93
9.28343677520751953 -2.17875003814697266 191.704254150390625 125 116 107
-3.42568826675415039 2.23538064956665039 210.7515869140625 149 137 121
2.66961336135864258 -5.56967926025390625 201.891128540039062 145 141 139
8.06157875061035156 -4.11905479431152344 194.676162719726562 144 144 136
-1.30229640007019043 1.88546693325042725 209.279998779296875 147 139 126
3.55005311965942383 3.69432878494262695 203.35321044921875 118 103 82
-7.31034612655639648 2.89093828201293945 219.561233520507812 146 141 135
13.7859392166137695 1.16469097137451172 185.698928833007812 133 132 127
1.38026940822601318 -2.68816637992858887 204.34332275390625 123 115 96
9.83404731750488281 3.73712921142578125 190.690185546875 15 16 23
5.94142913818359375 1.39315342903137207 198.02764892578125 128 125 120
-1.06878507137298584 -4.52868938446044922 206.318450927734375 141 137 134
-2.40470147132873535 -2.77202939987182617 208.923049926757812 127 118 107
-15.4213876724243164 3.09395217895507812 229.766525268554688 158 150 139
9.85402584075927734 2.54161477088928223 185.055099487304688 0 0 0
13.3094053268432617 1.3442378044128418 186.96160888671875 131 122 113
9.85038089752197266 2.58685088157653809 186.513946533203125 57 95 123
-2.10451316833496094 1.04801976680755615 210.093170166015625 146 140 128
-18.4783248901367188 1.4800344705581665 232.544021606445312 152 150 137
4.88516807556152344 1.96122586727142334 199.65130615234375 135 128 117
9.43686866760253906 2.44440865516662598 175.53631591796875 0 0 0
-7.42180728912353516 -4.8641972541809082 209.633209228515625 113 106 90
-7.37439870834350586 2.12174224853515625 218.18804931640625 149 141 128
-2.83104515075683594 2.0852203369140625 210.831802368164062 142 134 123
-7.15334939956665039 3.49577832221984863 218.4716796875 144 137 122
-9.30069828033447266 4.11829614639282227 221.341461181640625 151 143 130
10.5887517929077148 -2.29672789573669434 184.789413452148438 59 88 108
10.248234748840332 4.53259944915771484 193.399459838867188 127 116 97
8.24966526031494141 -4.62462902069091797 193.8250732421875 151 151 149
8.98560714721679688 -4.09405040740966797 191.373550415039062 143 134 125
14.5663461685180664 3.36620736122131348 184.31793212890625 128 128 121
-3.3098292350769043 -4.08561515808105469 210.615707397460938 121 118 106
-4.28106784820556641 -3.05923247337341309 212.53997802734375 143 139 137
1.90106630325317383 0.432971298694610596 205.257598876953125 136 135 134
-4.89587068557739258 2.27052116394042969 214.600570678710938 126 107 89
6.4669184684753418 -5.62123918533325195 194.839218139648438 140 141 144
14.4115715026855469 0.564436137676239014 186.823944091796875 128 119 116
-6.45453882217407227 0.331979483366012573 216.595733642578125 143 134 125
12.6350870132446289 -1.95779514312744141 182.186920166015625 99 94 77
1.56568241119384766 0.750534772872924805 204.056045532226562 121 115 103
-1.29601550102233887 1.8814016580581665 209.128875732421875 147 139 126
2.67620158195495605 2.04530501365661621 204.29473876953125 146 142 139
-3.42660784721374512 2.23309898376464844 210.685256958007812 149 137 121
-2.44515013694763184 2.05566501617431641 210.584930419921875 123 111 95
-4.07519865036010742 3.38226079940795898 213.8994140625 146 136 127
-0.106209494173526764 3.30672883987426758 207.51324462890625 145 147 136
-8.83318614959716797 3.84062933921813965 221.357269287109375 155 148 139
3.23007774353027344 -2.26206350326538086 201.201904296875 141 139 135
-8.2911834716796875 0.549443364143371582 219.071182250976562 142 134 132
-0.332584977149963379 0.626550197601318359 207.75732421875 145 146 141
-0.473078280687332153 0.886510074138641357 207.3065185546875 129 117 103
-7.93851709365844727 1.36385536193847656 217.84698486328125 150 140 130
-5.6801600456237793 2.32702231407165527 215.978973388671875 142 134 123
-14.6211862564086914 2.1503138542175293 226.726165771484375 157 156 151
-14.8639259338378906 2.53281521797180176 229.451004028320312 154 154 144
-4.65239238739013672 2.6219336986541748 215.205780029296875 147 140 130
3.21907711029052734 3.24779391288757324 204.781280517578125 120 111 96
-18.8093376159667969 3.17618775367736816 233.265243530273438 154 146 135
-13.9884147644042969 3.70115470886230469 226.992477416992188 153 151 139
-2.56381416320800781 3.44069695472717285 211.172683715820312 123 112 92
12.7165460586547852 4.19647932052612305 188.427520751953125 127 120 110
-15.5338916778564453 1.04073858261108398 228.871124267578125 160 161 155
-6.83616447448730469 1.74601924419403076 218.058883666992188 145 140 133
-4.79233026504516602 1.57459533214569092 213.937881469726562 149 147 135
3.41015625 1.63594818115234375 202.178070068359375 120 110 100
3.97726607322692871 1.6981886625289917 201.417388916015625 134 133 129
-12.7038717269897461 1.98372876644134521 225.650314331054688 127 121 100
-14.1100177764892578 2.4871971607208252 227.865463256835938 140 131 116
-9.42469596862792969 2.79597973823547363 220.704177856445312 149 151 140
-0.195628032088279724 3.0124976634979248 208.153518676757812 128 118 106
2.73496222496032715 3.3594210147857666 204.08392333984375 141 131 129
6.05396366119384766 3.40950250625610352 199.026199340820312 126 118 115
13.4458894729614258 3.66867494583129883 188.299819946289062 130 120 111
14.5441770553588867 3.88604331016540527 184.767868041992188 128 127 122
-3.61894774436950684 4.15762805938720703 213.055618286132812 127 118 100
5.56578159332275391 4.35778903961181641 201.083724975585938 137 132 128
13.2695207595825195 -4.49486780166625977 186.4671630859375 118 111 95
-5.63204526901245117 0.172532930970191956 215.380813598632812 121 108 91
1.27759921550750732 0.58606874942779541 204.8958740234375 122 116 102
1.36025786399841309 1.14649951457977295 205.554794311523438 144 149 145
1.36465108394622803 1.14517319202423096 205.5986328125 144 149 145
2.8771979808807373 1.17960309982299805 203.148757934570312 141 142 134
5.64413833618164062 1.12359702587127686 200.311477661132812 110 100 73
-9.06396102905273438 1.34901738166809082 220.2479248046875 119 110 98
-9.81754970550537109 1.84875893592834473 221.233184814453125 155 146 139
-16.5836830139160156 2.46507954597473145 230.909744262695312 151 149 136
-15.7056884765625 2.55752158164978027 230.585525512695312 133 119 97
-15.6980600357055664 2.55909895896911621 230.418869018554688 133 119 97
-0.254081487655639648 2.49079704284667969 208.164810180664062 143 133 121
-0.251384586095809937 2.49545884132385254 207.780059814453125 143 133 121
0.691104531288146973 3.30508279800415039 207.475051879882812 125 114 100
14.1494245529174805 3.5462491512298584 186.738571166992188 110 102 90
-9.59575462341308594 3.68356180191040039 221.178924560546875 131 117 98
-7.97648191452026367 3.51217341423034668 219.513717651367188 125 112 92
-12.0262126922607422 4.09897184371948242 224.8873291015625 131 118 99
-15.1668291091918945 -3.4464879035949707 226.636520385742188 131 116 93
-11.8082189559936523 -2.4544377326965332 223.374496459960938 129 120 105
4.67897129058837891 0.986608922481536865 200.572402954101562 140 140 140
0.472893774509429932 1.13513267040252686 208.050369262695312 127 117 102
-10.8865280151367188 1.64858484268188477 223.38116455078125 131 120 102
-8.58984756469726562 2.73727822303771973 220.231765747070312 119 109 97
-13.22027587890625 2.72437214851379395 226.983673095703125 155 152 145
-14.037135124206543 -1.62852394580841064 226.153884887695312 131 117 104
-14.037135124206543 -1.62852394580841064 226.153884887695312 131 117 104
8.61402988433837891 0.775076746940612793 193.917465209960938 94 75 58
-3.63106107711791992 1.4473426342010498 213.878158569335938 120 108 82
11.9527349472045898 -1.46099138259887695 182.583099365234375 50 81 113
11.3384513854980469 0.0599099099636077881 182.88592529296875 61 79 88
10.0484600067138672 2.4694058895111084 185.989898681640625 68 96 108
-6.94180107116699219 -5.59459066390991211 209.34698486328125 49 57 76
4.94695520401000977 2.41547584533691406 200.16064453125 141 133 120
1.71296346187591553 3.31902694702148438 206.440628051757812 143 130 113
7.70216464996337891 -1.2345116138458252 194.749862670898438 127 127 118
7.72155952453613281 -1.23175251483917236 195.56536865234375 127 127 118
5.47323083877563477 0.329364418983459473 197.876754760742188 133 135 121
2.49513602256774902 0.837995231151580811 202.737701416015625 124 116 103
-11.1187715530395508 -6.44184780120849609 219.879058837890625 144 135 126
2.85285186767578125 -2.36688041687011719 204.443939208984375 122 112 100
-0.709458231925964355 -2.0179746150970459 207.674453735351562 124 118 106
0.39726489782333374 -1.37142825126647949 206.686904907226562 127 118 103
-11.236241340637207 -1.01057207584381104 222.967361450195312 148 150 140
-9.33123302459716797 1.33768415451049805 219.4786376953125 114 110 101
4.88530731201171875 1.96402764320373535 199.498367309570312 134 126 115
-7.57185697555541992 3.83187389373779297 218.790512084960938 149 137 123
-6.72515630722045898 3.55911374092102051 216.963455200195312 128 116 104
-9.62140846252441406 4.3740234375 222.131103515625 131 118 102
-2.38259339332580566 4.43574428558349609 211.488845825195312 127 120 102
-2.2886967658996582 4.73338031768798828 212.630386352539062 144 144 132
4.28030014038085938 -2.24520277976989746 198.834808349609375 140 131 122
-10.2790460586547852 -2.61473417282104492 221.634109497070312 117 107 95
-0.3208732008934021 -5.99764251708984375 203.485488891601562 137 142 138
2.96144270896911621 0.595831215381622314 202.155136108398438 120 121 108
-0.331255644559860229 0.624788641929626465 207.946609497070312 145 146 137
-10.5871915817260742 1.07429492473602295 221.458358764648438 149 138 136
-0.338917165994644165 1.19804286956787109 206.776458740234375 143 141 129
-5.91558647155761719 -8.28636264801025391 208.586135864257812 118 109 94
-13.0665340423583984 1.31794333457946777 225.00372314453125 153 150 141
2.14580917358398438 2.08552670478820801 204.339935302734375 124 114 102
2.13887715339660645 2.08317232131958008 204.383316040039062 124 114 102
10.7856693267822266 2.56616973876953125 196.045166015625 0 0 0
-2.55112624168395996 3.42349410057067871 210.785537719726562 125 110 89
0.952139973640441895 3.92714238166809082 206.294723510742188 144 142 130
-1.56758272647857666 -3.4639892578125 207.002609252929688 142 144 137
-2.16172480583190918 4.2351231575012207 212.150833129882812 146 142 131
-9.75163459777832031 -2.30381536483764648 220.887664794921875 146 142 136
-15.5406303405761719 1.03446638584136963 228.91448974609375 157 156 154
-6.79273748397827148 4.61055755615234375 221.463623046875 155 148 138
-3.61894774436950684 4.15762805938720703 213.055618286132812 126 118 99
11.9949045181274414 4.74977445602416992 192.126312255859375 112 98 72
-11.5018520355224609 -5.04535007476806641 222.52581787109375 147 137 136
4.21552848815917969 -1.80341291427612305 200.353927612304688 141 140 138
9.51767349243164062 3.8190464973449707 187.602249145507812 23 29 35
10.8582916259765625 3.2502589225769043 191.623886108398438 116 107 92
4.76245832443237305 -5.83076953887939453 197.287857055664062 134 133 129
2.49405765533447266 4.03995800018310547 208.391937255859375 141 132 123
2.49707889556884766 4.05954217910766602 208.431961059570312 141 132 123
-18.8218841552734375 2.37240219116210938 233.553054809570312 136 120 97
4.60735797882080078 -4.16647052764892578 197.675537109375 143 148 145
9.60493946075439453 -0.198561683297157288 191.507080078125 84 101 110
-5.66677284240722656 -4.36941719055175781 205.304946899414062 60 64 68
-5.58135080337524414 -4.4337306022644043 207.600494384765625 135 143 156
12.4471750259399414 -2.28583526611328125 181.85986328125 18 16 32
-5.78765487670898438 -4.53695297241210938 205.65252685546875 101 125 141
10.2075490951538086 -1.92499256134033203 183.673858642578125 129 140 155
11.8573617935180664 -0.885168731212615967 181.86663818359375 24 38 47
12.1372013092041016 -2.35917830467224121 182.765853881835938 211 251 255
9.32956600189208984 -0.331282973289489746 184.346221923828125 85 103 114
11.0616683959960938 0.824548959732055664 184.002182006835938 64 69 74
9.91460704803466797 2.33273005485534668 186.819076538085938 118 152 180
8.59853649139404297 1.87230205535888672 187.53173828125 118 162 196
-8.67084789276123047 3.37613868713378906 220.34881591796875 144 132 117
13.3763980865478516 -0.530485332012176514 183.487808227539062 125 109 93
2.4626622200012207 0.573072195053100586 202.811691284179688 137 133 130
3.49352002143859863 4.47025632858276367 203.602981567382812 133 127 114
-9.26057338714599609 -7.61485004425048828 215.510101318359375 134 124 122
10.499384880065918 4.29876804351806641 192.6103515625 118 106 92
-10.0959749221801758 -5.41635656356811523 219.510009765625 138 131 121
-5.6442265510559082 0.694041788578033447 217.331390380859375 147 144 139
1.57813942432403564 4.35354709625244141 206.348556518554688 118 108 83
10.8775691986083984 -4.11141777038574219 189.384109497070312 132 125 119
-11.8481788635253906 -1.72452831268310547 222.665145874023438 130 125 112
-2.58866643905639648 -1.38492739200592041 211.123916625976562 142 139 134
10.3850975036621094 -2.34726285934448242 187.444366455078125 72 68 61
-14.2076492309570312 0.85784834623336792 225.302886962890625 134 124 111
12.5779390335083008 -2.13727045059204102 183.254852294921875 88 104 121
12.0318756103515625 -2.4124596118927002 184.695236206054688 78 110 134
11.2762279510498047 0.522177517414093018 182.787582397460938 35 22 14
-6.78040266036987305 -5.21672439575195312 208.817703247070312 146 177 201
10.30096435546875 1.75424110889434814 185.55242919921875 56 87 116
-5.35889339447021484 -4.48976659774780273 206.515945434570312 107 118 120
11.7286462783813477 -1.0425187349319458 182.659591674804688 87 117 145
8.15621185302734375 -3.36893677711486816 193.727127075195312 135 126 114
8.83000278472900391 -3.84676265716552734 193.827499389648438 140 134 122
-2.12099742889404297 2.66963052749633789 210.164398193359375 143 135 122
-9.61696338653564453 -4.85730743408203125 219.671493530273438 140 133 123
11.521174430847168 -2.69082546234130859 183.08660888671875 101 85 62
-11.9484519958496094 -4.21029281616210938 222.019546508789062 143 139 136
13.7518348693847656 2.82169437408447266 185.30389404296875 128 126 122
11.5305385589599609 -0.286279201507568359 183.013259887695312 68 87 101
-9.10121822357177734 -2.96799468994140625 217.460205078125 143 144 136
14.5598506927490234 -0.41714903712272644 185.6982421875 124 117 113
-7.10748147964477539 -5.04891824722290039 209.481399536132812 93 123 139
12.3261623382568359 -1.87425327301025391 181.143524169921875 110 118 121
-18.3357334136962891 -3.2914435863494873 230.790740966796875 146 135 130
11.7278947830200195 -0.625058650970458984 181.797393798828125 15 32 42
10.7597150802612305 0.918651282787322998 183.588287353515625 23 55 77
10.9227266311645508 0.91488957405090332 184.521484375 42 65 79
7.89675664901733398 -5.57941198348999023 192.01531982421875 138 140 136
10.585270881652832 1.092018723487854 184.744979858398438 106 139 171
11.2961301803588867 -0.182650744915008545 182.707473754882812 84 126 148
-0.105164788663387299 3.30675363540649414 207.55517578125 141 140 136
8.49960136413574219 1.53935182094573975 188.029403686523438 134 167 186
7.40972518920898438 3.58984994888305664 190.6192626953125 120 159 183
0.450845837593078613 -5.58156538009643555 202.440292358398438 140 142 137
4.22784709930419922 3.99708914756774902 202.583465576171875 135 132 120
-15.6294479370117188 1.89175772666931152 227.25628662109375 158 148 139
-3.39895415306091309 4.50432157516479492 213.134384155273438 143 143 131
-10.9185914993286133 -5.62212133407592773 219.050338745117188 139 129 124
10.8775691986083984 -4.11141777038574219 189.384109497070312 132 124 122
-10.7456064224243164 -2.3045496940612793 221.233184814453125 0 0 0
-14.803685188293457 4.19029331207275391 229.87469482421875 152 147 132
1.65709328651428223 -1.34901130199432373 203.438369750976562 143 140 133
-3.7625129222869873 0.147659227252006531 210.049331665039062 138 133 128
10.1849584579467773 4.50078964233398438 194.281387329101562 118 105 88
6.81867170333862305 4.36919641494750977 191.473358154296875 150 157 175
9.21089267730712891 0.213591426610946655 187.390029907226562 140 166 186
7.94652462005615234 2.61350560188293457 190.624969482421875 152 178 199
-5.3136897087097168 -4.71257495880126953 207.131515502929688 139 151 152
-5.47592496871948242 4.16482877731323242 218.924453735351562 0 0 0
10.8102807998657227 -2.71796345710754395 184.665084838867188 47 46 42
2.03870034217834473 1.08222377300262451 202.1246337890625 120 110 100
-9.79904651641845703 -2.98033022880554199 220.470550537109375 139 139 132
-15.520878791809082 -5.12927770614624023 226.142791748046875 102 94 84
-9.59406089782714844 -0.411662697792053223 219.056869506835938 107 99 85
-10.1141157150268555 -2.61694622039794922 219.666580200195312 112 104 91
12.4731740951538086 -2.01142573356628418 182.787277221679688 76 88 106
10.7751321792602539 0.792248427867889404 184.124435424804688 98 132 159
1.8651193380355835 -3.6915433406829834 202.28448486328125 145 147 134
15.7881622314453125 -1.61836957931518555 182.7877197265625 130 133 126
-12.3315105438232422 -2.92691206932067871 222.295806884765625 146 145 143
-9.99518871307373047 -4.22439098358154297 220.482376098632812 140 130 128
-2.46506214141845703 0.174616560339927673 210.601165771484375 123 114 99
-16.7372283935546875 1.34561491012573242 230.27093505859375 154 153 139
1.05793845653533936 -4.98376560211181641 204.67913818359375 125 119 103
-11.8323392868041992 -3.66064143180847168 222.4996337890625 126 117 100
-11.8259696960449219 -3.65980052947998047 222.376617431640625 126 117 100
-18.5396633148193359 -1.36027264595031738 232.114395141601562 135 124 112
11.3835935592651367 -1.22660565376281738 174.17718505859375 47 76 108
12.6803808212280273 -1.94538593292236328 182.879867553710938 0 0 0
-2.14088869094848633 2.66398763656616211 209.634033203125 140 137 122
1.84404706954956055 -3.69476008415222168 201.582656860351562 135 137 137
-10.1050395965576172 -2.67425036430358887 221.652374267578125 118 110 99
12.5217618942260742 -2.05560469627380371 182.501296997070312 87 95 114
11.8970355987548828 -1.16781258583068848 182.854217529296875 21 47 71
-5.54324865341186523 -4.65506792068481445 209.056961059570312 72 89 105
9.96612930297851562 -1.21490776538848877 186.187606811523438 126 153 172
10.7918243408203125 1.29670965671539307 185.9278564453125 59 78 89
8.65881919860839844 1.831276535987854 186.050277709960938 0 0 0
7.22711992263793945 3.69033598899841309 191.031845092773438 45 52 60
11.827977180480957 -0.992700934410095215 183.502883911132812 48 75 99
12.0983114242553711 -2.35447859764099121 182.666717529296875 236 255 255
12.1503086090087891 -2.07515072822570801 182.597991943359375 89 121 159
8.95676612854003906 -5.24585437774658203 189.947006225585938 136 138 135
-13.6889495849609375 -5.9748692512512207 223.924972534179688 143 139 136
4.62234878540039062 -4.1802220344543457 198.11138916015625 143 148 145
0.00784317217767238617 -6.234710693359375 203.462539672851562 135 136 137
-14.3761682510375977 -5.3827519416809082 223.283523559570312 140 139 137
11.1124153137207031 -3.15913867950439453 187.527908325195312 120 110 98
8.14903926849365234 -2.81325030326843262 193.497543334960938 128 127 122
-0.824977397918701172 -1.53572797775268555 207.335647583007812 142 143 138
4.12689113616943359 0.511792778968811035 200.916290283203125 118 117 112
11.4069976806640625 1.68198895454406738 190.10833740234375 104 92 73
2.67304420471191406 -5.17586469650268555 199.33135986328125 138 135 130
9.95742607116699219 -1.55216765403747559 187.077072143554688 85 81 70
5.09361028671264648 -3.13618016242980957 199.569503784179688 121 114 99
-4.28271722793579102 -0.302708059549331665 212.731491088867188 139 130 125
-8.14862251281738281 -4.92459821701049805 213.870468139648438 124 121 110
3.76158499717712402 -2.1238865852355957 199.893325805664062 122 112 97
-7.8334507942199707 -3.3184201717376709 215.977767944335938 135 132 125
-9.52267646789550781 -5.53643178939819336 217.008682250976562 133 128 125
-7.09668064117431641 -5.39296865463256836 210.09893798828125 119 149 169
12.3339061737060547 -1.84413433074951172 182.173812866210938 34 42 63
10.5337390899658203 1.48850512504577637 185.78912353515625 66 100 127
10.6181926727294922 -2.26287698745727539 184.7640380859375 110 142 167
9.86681175231933594 3.27179741859436035 186.8482666015625 27 24 19
9.59462261199951172 3.30510759353637695 187.39642333984375 44 79 99
-7.01176977157592773 -4.84036064147949219 208.8409423828125 150 178 197
12.5155344009399414 -1.94943785667419434 181.711578369140625 46 49 49
9.08637905120849609 0.635470390319824219 189.251251220703125 127 161 180
10.3881492614746094 1.89313924312591553 185.890289306640625 30 48 68
-6.81615304946899414 -4.90107536315917969 209.857192993164062 92 118 148
-1.43762385845184326 -5.33377790451049805 206.21295166015625 133 135 130
-14.5554895401000977 -6.95241594314575195 221.831451416015625 147 146 146
-10.219517707824707 -3.49328970909118652 219.391937255859375 101 93 82
-9.48492431640625 0.598235607147216797 219.063186645507812 109 110 96
