ply
format ascii 1.0
element vertex 665
property float x
property float y
property float z
property uchar red
property uchar green
property uchar blue
end_header
-2.26410698890686035 0.647471010684967041 20.4497814178466797 176 147 129
-3.31031298637390137 0.214824587106704712 18.2854671478271484 120 87 76
-3.8004302978515625 1.17579269409179688 18.4075393676757812 155 121 103
0.605046749114990234 -1.1853252649307251 21.3830947875976562 93 67 58
-8.74472427368164062 1.71897828578948975 23.2510662078857422 205 196 189
-2.81544184684753418 1.51581263542175293 22.2323341369628906 98 64 55
-3.17975950241088867 0.876662850379943848 18.2738037109375 151 114 96
0.45857730507850647 -1.51018881797790527 18.3484516143798828 117 75 59
0.519314110279083252 -2.13375210762023926 20.7420864105224609 154 108 95
2.82408523559570312 5.33362627029418945 23.2776126861572266 207 189 179
-0.131653144955635071 1.06199562549591064 23.4230003356933594 205 188 177
5.43402910232543945 1.41394126415252686 23.5261554718017578 199 189 179
-2.40975856781005859 0.898532450199127197 18.3142642974853516 135 103 97
0.379249125719070435 -2.4400789737701416 23.0800151824951172 179 149 138
-8.21649932861328125 2.89973831176757812 23.2664241790771484 206 196 187
-3.61406087875366211 1.01407146453857422 18.2786903381347656 143 103 86
-2.37340950965881348 0.875975847244262695 18.3237724304199219 107 70 62
0.581219792366027832 -2.1808772087097168 21.6090469360351562 157 120 111
-9.11968517303466797 1.45264160633087158 23.2461585998535156 205 194 192
-3.86749029159545898 0.886365354061126709 18.2709484100341797 141 99 83
-3.70695614814758301 1.20930027961730957 18.2760257720947266 171 138 121
-2.26525521278381348 0.807471930980682373 18.46990966796875 128 85 79
0.581068634986877441 5.05611038208007812 23.3930740356445312 204 193 187
-2.51315855979919434 0.586458861827850342 18.3027553558349609 100 66 64
-3.98337101936340332 1.48281872272491455 18.2373161315917969 162 132 121
-3.86621570587158203 0.885610044002532959 18.2610855102539062 143 100 84
-4.07768583297729492 0.867472589015960693 18.2830333709716797 150 119 108
0.88278806209564209 -1.36590671539306641 21.9266414642333984 93 59 50
-4.53100824356079102 4.35873222351074219 23.3014335632324219 206 197 188
-2.25388717651367188 1.20285332202911377 19.1305923461914062 77 37 32
-3.28915166854858398 4.2066802978515625 23.3272266387939453 208 198 188
4.53453779220581055 -0.217810928821563721 23.5283374786376953 201 190 181
-2.14147543907165527 0.0467771925032138824 18.8180103302001953 208 198 188
-3.2309114933013916 1.50571143627166748 18.6521434783935547 159 116 100
0.611986339092254639 4.15776872634887695 23.4040355682373047 207 193 184
3.58291125297546387 4.19736194610595703 23.5057411193847656 203 189 176
3.92126083374023438 4.52202320098876953 23.4722194671630859 201 192 183
4.80869054794311523 3.71793270111083984 23.4741706848144531 205 192 183
-1.00254106521606445 4.50662946701049805 23.3648128509521484 187 174 165
-1.08282589912414551 4.5714573860168457 23.3665447235107422 206 196 187
4.19862174987792969 4.88140726089477539 23.4482345581054688 181 167 156
1.68448364734649658 1.79836738109588623 23.4761772155761719 184 166 152
-2.98047065734863281 1.41345202922821045 18.2953681945800781 151 121 110
-1.08282589912414551 4.5714573860168457 23.3665447235107422 206 196 187
4.7353510856628418 5.00153303146362305 23.4446735382080078 206 194 184
-2.24422287940979004 0.782996714115142822 19.5137767791748047 106 70 54
-2.78050756454467773 1.42570173740386963 18.2910308837890625 189 153 139
-3.54123020172119141 1.44197547435760498 18.2816047668457031 152 104 89
-3.23137879371643066 1.46888041496276855 18.3059291839599609 158 114 100
-0.550155818462371826 -0.916879177093505859 23.1429672241210938 177 135 119
-3.60717415809631348 1.4156031608581543 18.2762222290039062 145 114 94
0.668459296226501465 2.26879334449768066 23.4501247406005859 188 166 153
-2.22943711280822754 1.47394716739654541 19.4685249328613281 70 37 30
-2.80653858184814453 1.49494469165802002 19.0664291381835938 98 59 48
-2.26587915420532227 0.287436723709106445 18.36602783203125 111 78 69
0.632123172283172607 -1.9445805549621582 20.0936317443847656 115 71 60
-3.95709109306335449 1.14016127586364746 18.2520503997802734 130 93 84
0.751777887344360352 -1.99961745738983154 21.3277587890625 179 160 145
-2.24426126480102539 1.06657171249389648 18.8891868591308594 88 52 43
-3.62438249588012695 1.4571843147277832 18.2731361389160156 143 110 93
-3.01401543617248535 1.49341356754302979 19.2645397186279297 175 132 118
-3.87752175331115723 1.45803475379943848 18.2595348358154297 114 86 76
3.79193210601806641 4.32343959808349609 23.4663352966308594 204 190 181
-2.35272526741027832 1.4647594690322876 18.3151626586914062 112 75 66
-1.98904800415039062 1.91387736797332764 23.3880519866943359 205 197 189
4.11281871795654297 0.112543612718582153 23.5219631195068359 204 195 184
-2.58363986015319824 1.48145902156829834 19.0318660736083984 170 129 111
3.51093292236328125 4.66298913955688477 23.4853248596191406 207 194 185
-3.29030489921569824 1.48755908012390137 19.0859451293945312 177 133 120
-3.67001891136169434 1.0651324987411499 18.2788867950439453 156 123 107
4.22549962997436523 4.89455413818359375 23.5866222381591797 184 167 155
-3.79796671867370605 1.18232870101928711 18.2765979766845703 183 147 130
3.43347406387329102 4.25575542449951172 23.4519920349121094 204 191 182
-3.01482915878295898 1.49235224723815918 19.2822437286376953 169 123 110
-2.3247530460357666 1.16985166072845459 18.3038482666015625 180 142 133
1.38890087604522705 0.839983522891998291 23.4767608642578125 208 195 186
-2.34356164932250977 0.690075457096099854 18.3085403442382812 113 77 70
-2.97287249565124512 1.27648794651031494 18.2958412170410156 127 96 87
-8.2571868896484375 1.3174813985824585 23.2695083618164062 203 196 189
-2.27949810028076172 0.860072016716003418 21.2356452941894531 175 132 113
-0.692080318927764893 -1.23688340187072754 22.3233261108398438 147 94 80
-8.33978748321533203 1.85171771049499512 23.2798213958740234 207 194 185
0.857594549655914307 -1.11424851417541504 23.2196521759033203 81 41 33
-3.52537417411804199 1.50257301330566406 20.5643348693847656 107 60 42
-3.30724811553955078 0.67771756649017334 18.2996826171875 126 84 73
-4.22324848175048828 5.06076431274414062 23.2946739196777344 208 198 189
-3.12204694747924805 0.614088177680969238 20.0728225708007812 111 73 70
-2.31013631820678711 0.773333907127380371 22.13812255859375 105 66 49
-2.39402580261230469 1.36923551559448242 20.2704753875732422 130 85 79
-3.29299259185791016 1.50969016551971436 20.5218467712402344 153 122 102
3.31580877304077148 4.68411159515380859 23.4387836456298828 181 162 145
2.00610661506652832 4.34978675842285156 23.4297504425048828 207 197 187
4.12158966064453125 3.31398749351501465 23.4867229461669922 206 198 187
-2.48039913177490234 1.51067209243774414 21.1552619934082031 176 130 115
2.67752695083618164 4.51559877395629883 23.4547615051269531 203 190 181
-1.21074533462524414 5.56454992294311523 23.3520298004150391 183 169 156
-5.99067497253417969 4.62686395645141602 23.2693214416503906 205 192 184
3.14932560920715332 4.65874624252319336 23.4478492736816406 206 192 181
4.32783222198486328 4.87408733367919922 23.4640274047851562 206 192 181
3.50199770927429199 4.65398073196411133 23.4348297119140625 203 190 179
2.67752695083618164 4.51559877395629883 23.4547615051269531 203 190 181
4.32783222198486328 4.87408733367919922 23.4640274047851562 206 192 181
2.00610661506652832 4.34978675842285156 23.4297504425048828 207 197 187
-7.25945758819580078 0.383302062749862671 23.2987155914306641 207 198 189
-2.95260310173034668 1.54924285411834717 23.1544055938720703 208 197 187
-3.20386886596679688 1.4991527795791626 20.1241912841796875 125 90 73
3.06179237365722656 4.75969600677490234 23.4462566375732422 182 163 151
-0.224699199199676514 4.65414333343505859 23.3836326599121094 205 196 187
1.21214282512664795 4.51739025115966797 23.4052581787109375 204 192 180
-2.65971541404724121 1.52043628692626953 22.225006103515625 100 70 59
-1.49811816215515137 4.50163698196411133 23.3583164215087891 209 200 193
1.12187588214874268 4.34296178817749023 23.4117259979248047 205 192 183
-2.47161054611206055 0.977301955223083496 18.3090229034423828 145 125 120
-5.824005126953125 4.34763288497924805 23.2789440155029297 210 202 199
-7.77633762359619141 4.26126194000244141 23.2609806060791016 205 190 183
-2.58363986015319824 1.48145902156829834 19.0318660736083984 170 129 111
-2.87092185020446777 1.37031543254852295 18.2892246246337891 114 71 64
-7.77633762359619141 4.26126194000244141 23.2609806060791016 205 190 183
3.06186127662658691 4.76020431518554688 23.4484291076660156 182 163 151
-2.21837830543518066 1.45283401012420654 18.5277900695800781 81 53 42
-0.923701167106628418 4.47401046752929688 23.3657588958740234 208 199 192
-4.03905868530273438 0.139228418469429016 18.2828845977783203 154 111 102
3.76433038711547852 4.56722116470336914 23.4656848907470703 179 162 146
2.74341273307800293 4.62261199951171875 23.4394931793212891 183 167 154
0.455546557903289795 4.64498424530029297 23.397613525390625 208 193 186
-3.16662859916687012 1.4479142427444458 18.3519153594970703 130 87 71
-7.60315895080566406 4.70153713226318359 23.2354621887207031 183 169 160
-7.50867652893066406 4.6943511962890625 23.2121467590332031 207 194 186
0.116383455693721771 4.66204977035522461 23.3784599304199219 208 194 185
-3.37063026428222656 1.47586393356323242 18.2873630523681641 181 137 124
-2.57035183906555176 1.38728904724121094 18.2896919250488281 158 126 119
-2.28716135025024414 0.969626069068908691 21.5338611602783203 81 41 31
-8.03237056732177734 4.0616755485534668 23.2411880493164062 207 196 189
-2.48884868621826172 1.51672494411468506 22.2525672912597656 92 54 43
0.286547452211380005 4.71861696243286133 23.3914527893066406 207 190 180
-3.65819573402404785 1.47108078002929688 18.2773017883300781 184 144 129
-2.7713935375213623 0.35325998067855835 18.3000411987304688 112 98 93
-4.02463817596435547 0.323646813631057739 18.2911052703857422 123 89 79
-2.45253252983093262 0.545531809329986572 18.3181381225585938 140 105 103
-2.24251222610473633 1.28996610641479492 18.3070335388183594 117 77 69
0.332866102457046509 -0.788729548454284668 23.2554416656494141 131 94 85
-3.1354219913482666 0.896433889865875244 18.3093223571777344 136 94 78
-3.34910702705383301 1.45683300495147705 18.2880668640136719 141 98 82
-5.88724756240844727 5.50129461288452148 23.2498989105224609 203 196 188
-3.84779858589172363 1.47567617893218994 18.26702880859375 199 165 155
-3.5030667781829834 0.950857102870941162 18.2625789642333984 161 127 115
-2.77694916725158691 0.440417677164077759 18.3062801361083984 114 89 84
-0.121164508163928986 5.69770574569702148 23.3766422271728516 207 195 186
-3.39396953582763672 0.385615289211273193 18.3004474639892578 122 86 74
-3.98308205604553223 0.204685628414154053 18.2989673614501953 137 101 88
-7.39055204391479492 4.84137773513793945 23.2689418792724609 206 193 185
-0.425566136837005615 -0.798203170299530029 23.0646820068359375 142 99 90
-2.70677590370178223 1.52024531364440918 21.9654998779296875 95 57 44
-3.73945975303649902 6.11849594116210938 23.3230323791503906 201 189 178
-0.930196642875671387 -1.28222870826721191 23.4337081909179688 213 184 176
-2.21223330497741699 1.16546893119812012 18.3140926361083984 173 141 130
-7.70866680145263672 4.93917083740234375 23.2423896789550781 205 197 186
-3.32998156547546387 1.41677188873291016 18.2852516174316406 129 90 75
-2.30228567123413086 0.371657520532608032 21.5987205505371094 172 129 120
-3.1707465648651123 1.47927021980285645 18.4526290893554688 109 57 43
-2.66613173484802246 0.862273871898651123 18.2968788146972656 113 85 78
-2.94365739822387695 1.04146945476531982 18.2890911102294922 143 122 116
-4.07856416702270508 -0.132012069225311279 18.3029346466064453 161 125 110
-2.24761819839477539 0.756634056568145752 18.2692737579345703 137 99 90
1.80862712860107422 -1.08684957027435303 23.4812526702880859 190 166 155
-2.69920516014099121 0.585599303245544434 18.2894573211669922 123 94 90
-3.86351823806762695 1.24593710899353027 18.2649021148681641 180 148 133
-2.82155895233154297 1.48627793788909912 19.1959285736083984 99 61 48
-3.14461231231689453 1.05599236488342285 18.2820911407470703 196 173 159
-3.95255374908447266 0.973679661750793457 18.2672080993652344 125 85 75
-3.91829323768615723 1.47778844833374023 18.2660179138183594 167 126 117
-3.00611305236816406 1.29169344902038574 18.2910022735595703 149 113 104
-2.23568987846374512 1.30210316181182861 20.0177040100097656 83 49 42
-3.97052741050720215 1.28309106826782227 18.2699699401855469 166 133 123
-2.27501273155212402 1.30820274353027344 18.3102626800537109 162 118 109
-3.9791719913482666 1.0418694019317627 18.2801933288574219 128 90 79
-2.26181697845458984 0.799897551536560059 20.793212890625 104 61 45
-3.67130160331726074 1.37331056594848633 18.3158531188964844 167 138 123
-3.2243044376373291 4.77205276489257812 23.3285942077636719 205 197 186
-3.75868558883666992 1.42449331283569336 18.2716217041015625 177 144 135
-6.85438156127929688 2.56422328948974609 23.2779102325439453 200 188 176
-4.07427740097045898 0.862625420093536377 18.2532062530517578 149 116 101
0.318917542695999146 3.58008003234863281 23.4125251770019531 209 192 182
-2.46682906150817871 5.09402322769165039 23.3335971832275391 209 199 191
-3.20448517799377441 1.3999253511428833 18.2881317138671875 135 89 79
-2.35631680488586426 1.47455418109893799 18.6638011932373047 142 101 87
3.43174266815185547 1.27734708786010742 23.4678096771240234 204 196 185
-4.11681413650512695 1.51342916488647461 21.0899562835693359 137 100 96
-2.29867982864379883 0.301797479391098022 18.3144264221191406 163 124 119
-3.05597281455993652 0.828247725963592529 18.2823448181152344 115 72 64
-5.82641029357910156 4.3472900390625 23.2878932952880859 206 201 197
3.50213861465454102 4.40522193908691406 23.4456272125244141 208 195 186
-3.16674184799194336 1.4993293285369873 20.0343093872070312 128 87 72
-2.3843083381652832 4.70495748519897461 23.3386001586914062 211 200 194
-4.09418010711669922 1.51235651969909668 20.7751350402832031 92 51 43
-3.34870529174804688 1.51604378223419189 22.0427570343017578 108 65 49
-1.23647463321685791 4.59035062789916992 23.3719692230224609 206 198 187
-3.16276288032531738 1.49829626083374023 19.6492824554443359 173 132 116
-2.48039913177490234 1.51067209243774414 21.1552619934082031 176 130 115
-2.01683688163757324 4.88749217987060547 23.3323478698730469 189 175 166
-2.24451732635498047 1.06510865688323975 18.904205322265625 91 57 48
-1.23647463321685791 4.59035062789916992 23.3719692230224609 206 198 187
-2.27194046974182129 0.452842146158218384 20.4574680328369141 108 60 48
-3.62532591819763184 1.50188350677490234 19.2467155456542969 117 70 54
-2.22145605087280273 1.32565009593963623 19.0219612121582031 143 115 104
-2.27925729751586914 0.509482681751251221 18.3663864135742188 105 66 60
-2.25312352180480957 0.748062968254089355 20.4335517883300781 155 123 104
-2.27379703521728516 1.17478823661804199 18.3431854248046875 118 74 65
-3.7268211841583252 1.00948727130889893 18.2781410217285156 170 131 116
-3.71278238296508789 1.52306985855102539 21.9925823211669922 97 55 39
-5.73963403701782227 4.37408924102783203 23.3682327270507812 185 171 165
-3.97822427749633789 0.265347510576248169 18.2912063598632812 117 80 71
-2.32965683937072754 0.738009274005889893 18.2838249206542969 107 70 62
-3.71584129333496094 1.50488150119781494 20.08355712890625 102 55 37
-2.26859474182128906 1.44878268241882324 18.3225193023681641 109 74 65
-3.01323533058166504 1.49120068550109863 18.6509208679199219 93 45 31
-2.47408032417297363 1.45074927806854248 18.2864532470703125 180 150 143
5.15040206909179688 4.73952436447143555 23.4878025054931641 207 192 185
-2.63009238243103027 1.41393744945526123 18.2928638458251953 120 75 70
-2.78842353820800781 1.16759371757507324 18.3010349273681641 112 78 72
-3.2796633243560791 1.42369341850280762 18.2375812530517578 132 92 80
0.72386854887008667 5.54739904403686523 23.3837699890136719 208 195 187
-2.23911833763122559 0.663550138473510742 19.2892227172851562 105 70 58
-2.25463414192199707 1.44813048839569092 18.300323486328125 114 72 60
-1.51337265968322754 4.95249700546264648 23.3576812744140625 184 162 151
-2.79405736923217773 1.35030770301818848 18.2902393341064453 178 144 135
2.87994050979614258 5.85039758682250977 23.3915901184082031 187 165 152
-2.28589487075805664 1.25671792030334473 18.3778629302978516 124 80 71
-3.45261263847351074 1.54273009300231934 21.5932903289794922 96 56 45
-2.22655630111694336 0.96420663595199585 18.2726802825927734 151 108 99
2.1480705738067627 2.76264047622680664 23.4479293823242188 201 187 174
-2.66100883483886719 1.47553813457489014 18.8725814819335938 100 56 44
-3.22136425971984863 1.51787638664245605 20.0421047210693359 174 137 119
-2.2383263111114502 1.23759090900421143 18.3061714172363281 176 135 125
-2.25299859046936035 0.208518654108047485 18.3038043975830078 112 73 66
-2.44233584403991699 1.45428001880645752 18.3363323211669922 113 79 71
-2.23108601570129395 1.46873712539672852 18.8038768768310547 160 132 120
-3.16587424278259277 1.48437488079071045 18.4259357452392578 118 70 56
-2.23977160453796387 0.434671103954315186 18.3963756561279297 181 135 129
-2.41910862922668457 1.38792085647583008 18.43939208984375 113 72 66
2.08556246757507324 2.77181601524353027 23.45367431640625 183 169 156
-2.47497940063476562 1.50748646259307861 20.5319423675537109 97 57 41
-3.95891284942626953 1.46792864799499512 18.2930202484130859 116 79 70
-2.83579540252685547 1.48233163356781006 18.4577751159667969 110 64 49
-3.38603091239929199 1.27613818645477295 18.2865791320800781 132 89 76
-2.96714568138122559 0.902378559112548828 18.2793102264404297 136 107 103
-9.20364284515380859 4.96101713180541992 23.203094482421875 205 195 187
-2.59043741226196289 1.46867501735687256 18.2749843597412109 147 108 100
-3.10565400123596191 1.48841595649719238 18.4175682067871094 107 55 42
-2.50626063346862793 1.46674096584320068 18.3013362884521484 124 93 84
-2.81944847106933594 1.09800398349761963 18.3006725311279297 177 142 140
-3.29271483421325684 0.799189984798431396 18.2787284851074219 130 87 74
-4.19518280029296875 0.579324483871459961 18.1802330017089844 199 186 178
5.4908146858215332 3.03468751907348633 23.5130825042724609 203 189 180
-2.2141115665435791 1.00863325595855713 18.5946121215820312 169 132 123
0.581617236137390137 5.05561637878417969 23.3968391418457031 202 191 185
-2.77399301528930664 1.53209543228149414 22.5763778686523438 195 179 166
-3.34437990188598633 1.45840442180633545 18.2488822937011719 131 92 77
-4.53078651428222656 4.36037158966064453 23.303436279296875 207 197 185
-3.89792847633361816 1.49548912048339844 19.4150180816650391 139 91 79
-1.75932693481445312 4.68722391128540039 23.4680328369140625 207 193 182
-8.31027984619140625 0.636325061321258545 23.256317138671875 208 195 186
-1.44189143180847168 4.7611393928527832 23.3569431304931641 205 195 184
-4.89973258972167969 4.83431720733642578 23.2842292785644531 207 197 188
-8.66693115234375 0.93814319372177124 23.2682437896728516 203 193 183
-7.39055204391479492 4.84137773513793945 23.2689418792724609 206 193 185
-2.63424825668334961 1.40830028057098389 18.3528518676757812 116 72 65
-3.27058601379394531 1.48685061931610107 18.5072669982910156 172 125 109
-2.26640582084655762 0.626866579055786133 18.3168373107910156 112 75 69
0.937327563762664795 -3.65890026092529297 23.5057868957519531 206 197 189
-4.13487577438354492 0.412508785724639893 18.2896080017089844 203 186 175
-6.36629915237426758 4.99265146255493164 23.3048629760742188 207 196 190
5.07838201522827148 -3.63153600692749023 23.5745277404785156 191 176 163
-2.30510187149047852 1.50800192356109619 20.7826995849609375 118 70 58
-3.98970365524291992 4.91690492630004883 23.3045883178710938 208 194 183
-0.803348362445831299 4.75831317901611328 23.3705768585205078 208 196 187
-8.75168895721435547 4.15917301177978516 23.2085189819335938 202 193 184
-2.2557978630065918 1.17461597919464111 18.2893142700195312 121 76 71
-3.23082971572875977 1.2426304817199707 18.3563194274902344 149 101 89
-4.18280601501464844 4.7420353889465332 23.3513603210449219 209 197 188
-2.87625312805175781 1.45645618438720703 18.3235759735107422 178 139 124
2.2497413158416748 4.75091314315795898 23.4224071502685547 203 191 179
-3.62613773345947266 1.33806061744689941 18.2445640563964844 190 164 148
2.79460692405700684 4.83433198928833008 23.4492225646972656 179 161 148
-1.41416847705841064 5.137542724609375 23.3599567413330078 173 155 143
-2.32648038864135742 0.548698842525482178 18.3066825866699219 174 137 129
-2.33626937866210938 0.441182613372802734 18.3487033843994141 108 69 65
-2.36661696434020996 1.27848625183105469 18.3146018981933594 114 69 64
-2.45074796676635742 1.38001668453216553 18.2993450164794922 111 78 69
-2.29417014122009277 0.441870242357254028 18.3327236175537109 164 127 121
-2.31119775772094727 1.44839894771575928 18.2710132598876953 185 153 142
-2.27679777145385742 0.718745827674865723 18.2677841186523438 180 143 135
-2.35170888900756836 1.46402883529663086 18.3038959503173828 107 69 60
-3.84189486503601074 1.12465465068817139 18.26251220703125 175 136 121
-3.33002686500549316 1.41813600063323975 18.2654228210449219 129 90 75
-2.19786453247070312 0.815098583698272705 18.5790348052978516 143 116 106
-3.84080147743225098 0.137943282723426819 18.2716388702392578 148 124 114
-3.68984270095825195 0.476090937852859497 18.2812366485595703 146 124 116
-2.24562454223632812 1.46692311763763428 18.2887821197509766 110 78 71
-5.95497512817382812 3.86692547798156738 23.2830352783203125 184 166 152
2.13004755973815918 -0.671301722526550293 23.4943065643310547 186 171 164
-2.80758190155029297 1.49735879898071289 19.8876667022705078 94 47 37
1.91082346439361572 1.86803996562957764 23.4689483642578125 183 164 152
2.1299135684967041 -0.671040654182434082 23.4933242797851562 186 171 164
-3.2058558464050293 0.621008038520812988 18.2954444885253906 146 115 98
-3.27710533142089844 0.179168552160263062 18.2921028137207031 114 77 69
-4.01240062713623047 0.541185319423675537 18.2883796691894531 177 143 133
-2.23151040077209473 1.05634951591491699 19.0280876159667969 144 114 106
-2.41337990760803223 1.39789366722106934 18.3572463989257812 112 73 66
-2.872711181640625 1.50234353542327881 18.6806240081787109 132 89 73
4.19862174987792969 4.88140726089477539 23.4482345581054688 181 167 156
-2.97108221054077148 1.40168631076812744 18.2881259918212891 167 137 126
-3.68757200241088867 1.50778484344482422 18.6125469207763672 127 75 61
-4.89325237274169922 5.50513219833374023 23.3791980743408203 201 188 181
4.07195186614990234 4.88908100128173828 23.4591503143310547 208 197 191
-2.87615299224853516 1.49044358730316162 19.5020179748535156 160 122 113
2.73329687118530273 4.92672491073608398 23.3670101165771484 208 190 178
-3.31728219985961914 1.46174848079681396 18.2993450164794922 193 160 145
-0.803115785121917725 4.75601339340209961 23.3356533050537109 210 200 190
-2.31332135200500488 1.44549524784088135 18.2952308654785156 186 150 142
-2.24040055274963379 1.49796402454376221 18.9336433410644531 163 124 107
-2.25699138641357422 0.697423338890075684 18.128021240234375 114 77 71
-2.23544526100158691 1.28491687774658203 19.7106475830078125 72 39 30
-2.83905625343322754 1.53601479530334473 21.7448463439941406 101 61 51
-6.07581710815429688 5.7589111328125 23.1683063507080078 180 167 158
-2.81783342361450195 1.51564240455627441 22.2332878112792969 108 69 57
-2.79587149620056152 1.50648248195648193 20.6971626281738281 114 70 54
-2.80049800872802734 1.50170111656188965 19.8059196472167969 95 51 42
-3.35606527328491211 1.5044853687286377 19.2907924652099609 110 61 46
-3.44197487831115723 1.53071463108062744 21.9872360229492188 113 75 66
-2.85181641578674316 0.788483083248138428 18.2261180877685547 122 94 84
-2.30005240440368652 0.955087959766387939 18.532562255859375 112 68 65
-3.21114063262939453 1.39527332782745361 18.3249378204345703 135 83 72
-2.2750086784362793 0.722623467445373535 18.2793445587158203 181 146 140
-2.62952041625976562 1.50297069549560547 20.508056640625 110 68 52
-2.77358317375183105 1.40900468826293945 18.5721759796142578 120 79 65
5.11406135559082031 5.37399911880493164 23.4310855865478516 185 167 153
-2.55056977272033691 1.45496845245361328 18.2717075347900391 112 83 77
-3.02898144721984863 1.52057433128356934 20.9739780426025391 100 53 38
-2.96788811683654785 1.52506899833679199 22.1132221221923828 102 76 63
-2.22675085067749023 1.29112255573272705 18.7467136383056641 125 91 82
-2.90236425399780273 0.656806826591491699 18.3027591705322266 133 100 93
2.08556246757507324 2.77181601524353027 23.45367431640625 186 170 157
-2.97183728218078613 1.52436959743499756 22.1945323944091797 97 64 55
-3.08340191841125488 1.48488533496856689 19.5475425720214844 103 63 48
-2.34821462631225586 1.50844240188598633 20.7687568664550781 180 133 117
-3.10102391242980957 1.10543191432952881 18.2375907897949219 111 84 74
-3.35708141326904297 1.50920546054840088 21.4608135223388672 112 70 58
-2.27717947959899902 1.23630952835083008 21.3049468994140625 139 98 87
-3.2989501953125 1.50549066066741943 20.0576324462890625 186 143 127
-9.31130504608154297 1.93981242179870605 23.2048473358154297 205 192 184
-4.04630374908447266 0.335972607135772705 18.2549228668212891 167 133 124
-2.23480129241943359 1.42514491081237793 18.2974891662597656 112 74 67
-4.74842405319213867 5.44897270202636719 23.2417526245117188 181 167 158
-4.01474618911743164 1.45217728614807129 18.2209568023681641 174 141 130
-2.43801498413085938 1.51923203468322754 21.9545688629150391 134 77 70
-2.37370109558105469 1.4799264669418335 18.4173259735107422 194 151 136
-2.79139208793640137 1.48599886894226074 18.4075412750244141 115 66 51
-2.24447989463806152 1.17742049694061279 19.7417373657226562 184 149 147
-2.8993370532989502 1.41831886768341064 18.2922821044921875 148 107 97
-2.59375429153442383 1.46869051456451416 18.3007850646972656 151 108 102
-3.15778255462646484 1.45471179485321045 18.2946205139160156 129 86 70
-3.21681857109069824 4.7671198844909668 23.26617431640625 206 195 186
-3.04874491691589355 0.577697873115539551 18.2845973968505859 120 83 73
-2.32416772842407227 1.16953527927398682 18.2997379302978516 179 140 131
-3.70463371276855469 0.597521781921386719 18.2194633483886719 137 104 94
5.79410123825073242 2.5299077033996582 23.5654373168945312 209 195 184
-2.69515228271484375 0.995779871940612793 18.3097152709960938 120 87 78
-2.69574618339538574 0.994281888008117676 18.3184452056884766 120 87 78
-2.21347641944885254 1.24743235111236572 18.3391227722167969 89 49 41
0.343744784593582153 -2.31711125373840332 21.4782047271728516 117 72 58
-3.63123607635498047 1.47320950031280518 19.7057342529296875 112 66 50
0.664091765880584717 -1.3618701696395874 20.5757999420166016 117 67 58
5.38596773147583008 -3.35773563385009766 23.6474761962890625 206 197 190
6.09983301162719727 -1.70137500762939453 23.4577388763427734 208 198 189
3.56070303916931152 5.58589458465576172 23.4562416076660156 208 195 187
0.27687370777130127 -1.71211445331573486 16.2088565826416016 187 154 137
-2.26316261291503906 1.2907637357711792 20.6383342742919922 163 131 122
0.948178291320800781 -1.77755749225616455 22.3343753814697266 113 68 55
8.05172824859619141 0.517300665378570557 23.5853710174560547 204 197 191
-2.23914504051208496 1.25327670574188232 19.1485424041748047 73 32 26
2.94784855842590332 5.36620378494262695 23.3834934234619141 189 165 155
4.98530197143554688 -0.683922827243804932 23.5472011566162109 205 199 187
-2.27387523651123047 0.843730509281158447 21.4277935028076172 120 75 56
4.37551259994506836 2.45738530158996582 23.4504909515380859 185 167 157
6.99523019790649414 -3.44121956825256348 23.6444244384765625 186 176 166
1.00173628330230713 -2.10365962982177734 23.5339946746826172 212 198 189
0.434743613004684448 -1.42223632335662842 18.6435661315917969 120 74 58
0.69662177562713623 -1.43597280979156494 20.1401214599609375 108 61 53
-3.97214388847351074 6.08363533020019531 23.3267669677734375 199 190 187
2.64844012260437012 4.96655559539794922 23.2941989898681641 184 163 147
-2.28830099105834961 0.338424831628799438 22.4397811889648438 201 183 173
-2.39874434471130371 1.36236512660980225 21.6741256713867188 126 92 82
-2.27266311645507812 1.47065401077270508 20.6973419189453125 77 34 28
0.684697210788726807 -1.68092942237854004 19.7634429931640625 107 65 55
-2.39874434471130371 1.36236512660980225 21.6741256713867188 110 74 66
0.659123897552490234 -1.65023660659790039 19.4654998779296875 175 141 131
0.923259735107421875 -2.03882074356079102 22.7511215209960938 91 57 45
1.04202783107757568 -1.67284214496612549 22.9465885162353516 136 88 76
0.428532868623733521 -2.14228224754333496 20.4416122436523438 195 154 136
-2.59544968605041504 1.46539556980133057 18.3032035827636719 145 106 99
0.648807227611541748 -1.51828837394714355 19.5486965179443359 111 69 55
0.880761325359344482 -1.36512589454650879 21.938079833984375 93 59 50
0.783723890781402588 -2.09213137626647949 22.0660114288330078 143 105 90
-4.89758729934692383 4.83319377899169922 23.2622928619384766 205 195 185
0.979313552379608154 -1.96282005310058594 22.9426689147949219 100 71 55
-2.24334168434143066 1.17698192596435547 19.4073753356933594 89 49 46
0.930020034313201904 -1.94608652591705322 22.6108837127685547 187 164 156
0.659783244132995605 -1.87187850475311279 19.9623661041259766 194 152 140
0.820285439491271973 -1.90508735179901123 21.5177040100097656 110 74 58
-2.22938919067382812 1.05561649799346924 18.4103431701660156 143 100 93
0.338580846786499023 -2.29070806503295898 21.5373363494873047 147 101 86
-2.31244659423828125 0.577204227447509766 22.2528495788574219 203 169 154
-2.27681398391723633 1.06958949565887451 21.2420578002929688 93 49 36
-2.27771687507629395 1.19565093517303467 21.5723838806152344 104 52 41
-3.34230136871337891 1.51763737201690674 19.9498558044433594 119 64 48
0.768757283687591553 -2.1747136116027832 22.6674041748046875 129 87 73
-3.99660539627075195 1.47287547588348389 18.2961463928222656 160 126 115
0.433471620082855225 -2.04206275939941406 19.4524421691894531 180 134 118
0.496116966009140015 -1.94247555732727051 18.9759063720703125 160 113 97
0.622729361057281494 -1.64244413375854492 19.3185577392578125 115 77 62
0.779914796352386475 -2.1727147102355957 22.5940036773681641 129 87 73
-2.87848210334777832 1.49924755096435547 19.4151878356933594 153 119 110
-2.31230759620666504 0.430887728929519653 22.2600784301757812 203 175 161
-3.52984213829040527 1.49217283725738525 18.6558055877685547 177 132 113
-2.27305340766906738 0.352623164653778076 20.5959815979003906 132 84 70
-3.29030489921569824 1.48755908012390137 19.0859451293945312 177 133 120
0.553175449371337891 -2.2536005973815918 21.8869972229003906 173 140 123
0.389777094125747681 -1.95721614360809326 18.4963855743408203 125 78 63
0.221147879958152771 -1.82779908180236816 16.3619003295898438 102 65 47
0.9780731201171875 -1.83864569664001465 22.5006561279296875 107 73 58
-2.72064328193664551 1.50040721893310547 20.8185501098632812 177 138 123
-3.8487093448638916 1.47549104690551758 18.2729282379150391 196 164 154
0.547013282775878906 -1.3563767671585083 19.7033176422119141 132 98 79
-2.26452970504760742 0.528267025947570801 20.8145580291748047 114 68 53
-2.28485250473022461 0.762925982475280762 21.7259197235107422 161 125 109
-2.27049016952514648 0.691655933856964111 21.8142452239990234 110 64 49
-2.29988813400268555 1.42629921436309814 22.1488265991210938 101 58 46
0.314493805170059204 -1.25492167472839355 19.6055545806884766 120 91 76
2.19875264167785645 5.52517271041870117 23.4075241088867188 206 196 186
-2.31188416481018066 0.0472952984273433685 22.2590618133544922 187 139 121
-4.00667476654052734 1.47940146923065186 19.4533576965332031 88 38 27
0.414235621690750122 -1.58866751194000244 17.6550865173339844 147 114 99
0.943645298480987549 -1.97264647483825684 22.8767032623291016 124 97 88
-2.33214259147644043 -0.0494661666452884674 21.9901618957519531 148 97 76
-3.95046281814575195 -0.0286107640713453293 18.2936954498291016 123 86 78
4.93408966064453125 4.20790243148803711 23.4785175323486328 186 164 143
-3.81016159057617188 1.14184319972991943 18.2930488586425781 155 118 103
3.99672412872314453 4.88744926452636719 23.4498481750488281 193 183 173
2.37245607376098633 5.21423864364624023 23.1980323791503906 201 191 179
4.59371566772460938 5.09380435943603516 23.4920253753662109 187 168 154
-2.52533674240112305 1.40948963165283203 18.3052310943603516 148 119 113
-2.21667814254760742 1.29947209358215332 18.6405143737792969 131 93 84
-2.57066798210144043 1.49339687824249268 19.5694751739501953 179 136 123
4.41815042495727539 2.69128870964050293 23.5094680786132812 206 196 184
-3.94429683685302734 1.47228336334228516 18.2033443450927734 113 83 72
3.15033197402954102 4.65886926651000977 23.4618320465087891 208 195 186
-5.99646091461181641 4.62907600402832031 23.3023262023925781 203 189 180
-5.60058069229125977 2.10136818885803223 23.2529888153076172 209 196 187
1.07673788070678711 2.5039060115814209 23.4756221771240234 189 165 155
0.441616922616958618 -2.06587338447570801 19.8014411926269531 162 119 102
4.47320890426635742 3.6592566967010498 23.4666957855224609 210 193 183
-3.15302324295043945 1.55748867988586426 22.859375 204 195 185
-2.68975019454956055 1.46601700782775879 20.5140743255615234 130 84 68
1.18391704559326172 3.51561379432678223 23.415740966796875 189 172 162
-6.17640352249145508 5.16039085388183594 23.2704181671142578 203 193 183
0.900153756141662598 -1.87353181838989258 21.9631099700927734 132 104 93
4.84311580657958984 5.09364891052246094 23.5134162902832031 187 171 156
-2.03928947448730469 5.17260313034057617 23.3335227966308594 209 202 194
4.73042106628417969 5.15321588516235352 23.4269027709960938 202 188 175
-4.70830488204956055 5.3291468620300293 23.2787094116210938 204 194 185
4.2752079963684082 5.36644935607910156 23.4829292297363281 203 191 179
0.695252478122711182 5.21848011016845703 23.3936328887939453 208 196 189
0.167975649237632751 -2.2401280403137207 20.7227115631103516 164 120 104
-5.99740839004516602 5.23787403106689453 23.2651596069335938 204 194 185
-3.67539048194885254 1.50931572914123535 20.3267822265625 97 50 38
4.16039705276489258 3.58510422706604004 23.5085983276367188 207 199 186
0.519874274730682373 -1.38310837745666504 19.4864654541015625 129 92 73
-2.74061751365661621 1.48449528217315674 18.3780918121337891 152 103 86
2.07805681228637695 2.8873283863067627 23.4810695648193359 210 194 181
-0.553674995899200439 3.42781662940979004 23.4522132873535156 210 197 185
3.55731344223022461 3.95391011238098145 23.4522266387939453 182 162 151
-3.01385903358459473 4.6894526481628418 23.3160018920898438 186 170 157
-5.04158353805541992 5.72664737701416016 23.2683296203613281 181 164 152
3.62451863288879395 5.24597311019897461 23.4627971649169922 206 189 179
-2.38820314407348633 1.50255191326141357 20.1958751678466797 123 75 59
-1.05115163326263428 5.30249977111816406 23.3584175109863281 209 200 191
-2.22798871994018555 1.3063051700592041 18.9279003143310547 140 110 100
2.76231527328491211 5.35924386978149414 23.5345401763916016 189 163 148
-3.01385903358459473 4.6894526481628418 23.3160018920898438 186 170 157
-2.28025221824645996 1.24418115615844727 22.3929309844970703 202 188 180
-2.79813957214355469 1.50264310836791992 19.7962665557861328 97 53 42
2.10282731056213379 4.70056819915771484 23.42901611328125 207 194 186
-3.16844582557678223 1.28478050231933594 18.2839851379394531 156 114 98
2.95045661926269531 5.37091827392578125 23.4053287506103516 189 170 158
-3.17257857322692871 1.52276098728179932 22.2124900817871094 100 61 48
-3.90171313285827637 1.50908195972442627 20.9979209899902344 78 39 31
-2.26581811904907227 0.513723909854888916 20.8815250396728516 117 71 56
-2.70316910743713379 1.49234962463378906 19.0848312377929688 185 143 132
-2.22089314460754395 0.791281402111053467 18.4823722839355469 99 60 51
6.09886837005615234 -0.237416237592697144 23.5647907257080078 203 198 189
-2.3016049861907959 0.681149899959564209 22.1391620635986328 95 57 41
-2.25808429718017578 0.894137561321258545 20.7233924865722656 115 70 51
-2.25984549522399902 1.06400537490844727 20.2491607666015625 146 96 87
-2.37016487121582031 1.49330615997314453 19.8507747650146484 127 58 51
-2.27709841728210449 1.23016476631164551 18.3222141265869141 117 73 64
-2.24623012542724609 1.3638836145401001 19.5856475830078125 75 45 41
-2.21932673454284668 1.15387344360351562 19.6265201568603516 75 40 36
-3.09204983711242676 1.50747668743133545 20.398834228515625 100 64 50
-2.21565723419189453 1.42605233192443848 18.3574638366699219 167 143 133
-2.27028536796569824 1.30310046672821045 20.9712791442871094 93 65 54
6.64480209350585938 0.627177894115447998 23.5608997344970703 207 198 193
-4.07187366485595703 1.50066459178924561 18.7319126129150391 90 55 44
-2.27943682670593262 1.37652719020843506 21.76025390625 147 100 94
-2.25796079635620117 1.46220099925994873 19.7178688049316406 67 39 29
-2.92674350738525391 1.51655852794647217 20.7662277221679688 112 65 55
-3.86500954627990723 1.49545121192932129 19.9971694946289062 100 48 34
-2.27291297912597656 0.846977949142456055 20.9939060211181641 192 147 128
-2.71454238891601562 1.50387918949127197 20.7696075439453125 177 138 123
-3.6919410228729248 1.50881576538085938 20.8294944763183594 100 52 38
-2.29262256622314453 1.48267781734466553 22.1013336181640625 96 47 37
-4.07352638244628906 5.71486520767211914 23.3549518585205078 208 199 193
-3.60180068016052246 1.52543449401855469 22.151214599609375 88 50 39
8.41580390930175781 5.06662988662719727 23.5508708953857422 206 193 184
-4.13684368133544922 1.5256197452545166 22.2664623260498047 83 59 49
3.50575613975524902 6.32329130172729492 23.4542255401611328 211 198 190
-2.24605131149291992 1.42973959445953369 19.9942169189453125 115 80 74
4.50274085998535156 3.80475592613220215 23.427154541015625 208 196 184
-3.86500954627990723 1.49545121192932129 19.9971694946289062 100 48 34
-1.14098179340362549 5.55880832672119141 23.3633270263671875 207 194 185
-3.48300004005432129 1.51793432235717773 20.7171726226806641 164 117 99
-2.2533106803894043 1.1712043285369873 19.8088188171386719 180 147 143
-2.28210043907165527 1.37007856369018555 21.5711708068847656 78 38 31
-3.36288714408874512 1.52313375473022461 20.9761314392089844 107 65 49
0.372194677591323853 3.29229116439819336 23.2451114654541016 206 196 186
-3.6297147274017334 1.32232034206390381 18.2817344665527344 194 165 150
-3.93642973899841309 0.853822946548461914 18.3491744995117188 173 132 120
-3.7149960994720459 1.36020731925964355 18.2651863098144531 179 147 134
-2.02966022491455078 6.46549892425537109 23.3229656219482422 207 193 184
-3.71956872940063477 0.627234160900115967 18.2455615997314453 165 128 116
-2.81508684158325195 1.45118272304534912 18.2771434783935547 122 82 72
-2.25302028656005859 0.734418869018554688 19.8211917877197266 183 152 132
-2.24455404281616211 0.833620667457580566 19.021942138671875 87 49 37
-3.2396390438079834 1.48296833038330078 18.3797264099121094 121 75 61
-3.24048972129821777 1.49499523639678955 19.0680770874023438 174 131 114
3.6877596378326416 6.33373022079467773 23.3428287506103516 207 194 185
-2.99430370330810547 1.4939497709274292 19.4577980041503906 99 59 44
-4.14916563034057617 1.49408590793609619 19.8320636749267578 104 75 64
5.11406135559082031 5.37399911880493164 23.4310855865478516 185 167 153
-0.117589294910430908 -2.47678399085998535 23.1726570129394531 84 51 44
-3.99429869651794434 1.48934876918792725 20.0140857696533203 96 51 37
2.57692623138427734 4.25018978118896484 23.4520339965820312 207 197 187
0.636036992073059082 -1.72751617431640625 19.3072223663330078 150 108 94
-3.04249167442321777 1.5163264274597168 20.6839084625244141 161 121 106
-3.8161318302154541 1.51904451847076416 20.8472824096679688 180 142 132
-3.23937678337097168 1.48321723937988281 18.3802089691162109 121 75 61
-2.9064631462097168 1.52318096160888672 20.6290607452392578 111 67 54
2.99056839942932129 6.46674871444702148 23.4538059234619141 209 196 187
0.594621896743774414 -0.927077353000640869 22.9040279388427734 134 104 94
-2.9567713737487793 1.5229494571685791 21.3038215637207031 107 64 51
-6.85546016693115234 2.56584572792053223 23.2707366943359375 201 189 177
0.873491227626800537 -2.08583235740661621 22.8184642791748047 156 123 110
-2.30086827278137207 1.20990264415740967 22.1890945434570312 94 54 42
6.22305917739868164 6.28705930709838867 23.4472541809082031 185 169 156
0.133296608924865723 -2.13019871711730957 19.4791622161865234 165 132 117
-2.24281549453735352 0.865799188613891602 19.0443000793457031 135 94 81
-3.7149960994720459 1.36020731925964355 18.2651863098144531 179 147 134
0.807738840579986572 -1.05268657207489014 23.0811824798583984 124 81 74
-3.3316195011138916 1.41630351543426514 18.2918205261230469 129 87 75
-3.12236642837524414 1.41454875469207764 18.5691051483154297 130 81 66
-2.24281549453735352 0.865799188613891602 19.0443000793457031 135 94 81
-2.38750648498535156 1.51604807376861572 21.5057716369628906 102 46 35
1.09365284442901611 -1.70892596244812012 23.4527778625488281 102 65 56
-2.27628207206726074 1.46618831157684326 21.0511302947998047 118 75 69
-2.24841403961181641 0.867065310478210449 20.4100399017333984 162 118 101
0.594418644905090332 -2.21927118301391602 21.4349327087402344 116 79 63
-2.68585562705993652 1.50946187973022461 21.2281208038330078 86 47 32
-2.7731475830078125 1.5171964168548584 21.4202880859375 99 61 48
5.47520160675048828 2.94020748138427734 23.5549831390380859 209 195 182
-2.23169326782226562 1.14703977108001709 18.9234447479248047 138 116 105
-2.22410440444946289 1.0578155517578125 18.3574638366699219 147 102 96
-2.23911690711975098 1.31299972534179688 19.1888790130615234 137 107 99
0.418618530035018921 -2.40134978294372559 22.8478221893310547 120 92 81
-2.31668400764465332 1.5015406608581543 19.9944171905517578 131 79 66
-2.23366594314575195 1.10661959648132324 19.0503826141357422 90 63 54
0.437339037656784058 -1.9189077615737915 18.6951179504394531 129 87 71
-3.7610623836517334 1.50987935066223145 20.0636005401611328 152 103 86
0.653632104396820068 -2.05233502388000488 20.8789920806884766 151 135 123
-2.69601583480834961 1.4989006519317627 20.1669902801513672 176 130 114
-2.29694128036499023 0.683413565158843994 22.0908584594726562 94 58 50
-2.72021293640136719 1.48606312274932861 18.7765846252441406 163 123 115
0.324857473373413086 -2.07792901992797852 19.3357658386230469 128 81 65
-2.7731475830078125 1.5171964168548584 21.4202880859375 99 61 48
-3.97820854187011719 1.48451769351959229 18.2060928344726562 164 129 117
-3.96651935577392578 1.27433812618255615 18.2530555725097656 166 132 120
7.79698801040649414 4.12321996688842773 23.5588893890380859 208 195 186
-2.69899153709411621 1.46840536594390869 18.2962627410888672 148 103 88
-3.59918570518493652 1.48927402496337891 18.8947963714599609 112 63 48
-2.75376391410827637 4.12895727157592773 23.3291244506835938 184 168 154
-3.45673155784606934 1.47530198097229004 18.2973785400390625 168 120 105
-2.26775503158569336 1.02190518379211426 21.0738315582275391 167 125 109
-3.03535079956054688 1.50161433219909668 19.4806766510009766 101 59 45
6.54234600067138672 0.770501315593719482 23.61419677734375 204 195 186
-3.17075181007385254 1.49451076984405518 19.6919040679931641 184 142 126
-3.10302901268005371 1.50961220264434814 20.6041984558105469 110 72 59
-3.7088010311126709 0.935796976089477539 18.2822647094726562 174 138 119
-2.6164238452911377 1.50713562965393066 19.8534011840820312 129 83 67
0.268064796924591064 -1.55002844333648682 17.0165653228759766 111 64 48
-4.04649114608764648 1.29043090343475342 18.2601318359375 125 92 82
9.77129364013671875 -4.68308210372924805 23.7492923736572266 190 167 149
-3.70821237564086914 1.28675949573516846 18.2725944519042969 183 150 135
-4.03590583801269531 1.54806375503540039 21.6043128967285156 88 59 53
-2.26082897186279297 1.23960769176483154 20.8310813903808594 140 94 85
-2.96778750419616699 0.947220504283905029 18.4167747497558594 130 110 105
-3.3867795467376709 1.51301956176757812 21.1312141418457031 107 68 51
-3.84878802299499512 4.77507352828979492 23.3023185729980469 185 168 158
-2.27399730682373047 0.975527346134185791 21.3457298278808594 92 52 39
0.55603104829788208 -2.3040778636932373 22.33001708984375 171 144 130
4.94278192520141602 5.35858631134033203 23.475067138671875 205 193 181
-3.00731253623962402 1.386496901512146 18.2780895233154297 185 156 142
4.94278192520141602 5.35858631134033203 23.475067138671875 205 193 181
7.34255695343017578 -1.89268910884857178 23.5747013092041016 207 205 193
-2.24331974983215332 1.01569390296936035 20.2856063842773438 97 44 30
-2.28668856620788574 1.30712020397186279 21.7681598663330078 96 48 43
1.46454215049743652 5.13328123092651367 23.3891277313232422 206 193 183
-2.28668856620788574 1.30712020397186279 21.7681598663330078 96 48 43
-5.88724756240844727 5.50129461288452148 23.2498989105224609 203 196 188
0.343993932008743286 -2.36667966842651367 22.1079845428466797 146 102 89
2.19875264167785645 5.52517271041870117 23.4075241088867188 206 196 186
-4.9059910774230957 5.72673463821411133 23.2933464050292969 206 193 187
-1.14098179340362549 5.55880832672119141 23.3633270263671875 207 194 185
4.95747041702270508 2.58576631546020508 23.4999256134033203 204 194 184
-2.28613853454589844 1.02518510818481445 21.8437080383300781 174 120 105
-0.120910383760929108 5.69796657562255859 23.3777027130126953 207 195 186
-2.26037836074829102 1.19631993770599365 21.0898628234863281 89 40 29
-4.9059910774230957 5.72673463821411133 23.2933464050292969 206 193 187
-3.15526676177978516 1.52746474742889404 22.0557575225830078 101 62 48
2.19903254508972168 5.52568817138671875 23.4078464508056641 206 196 186
0.189275801181793213 4.71214818954467773 23.3814373016357422 190 173 162
4.7353510856628418 5.00153303146362305 23.4446735382080078 206 194 184
-3.6958167552947998 1.50735890865325928 20.8646087646484375 95 48 32
4.7361302375793457 3.53783226013183594 23.4967536926269531 206 193 184
4.73546123504638672 3.53661084175109863 23.4970417022705078 206 193 184
-2.27315640449523926 1.400382399559021 21.6521244049072266 87 38 29
-3.71894621849060059 1.6749274730682373 17.8878402709960938 196 182 171
-2.22846078872680664 1.28801417350769043 19.5837802886962891 81 45 40
-3.24038076400756836 1.50791656970977783 20.5389575958251953 160 129 111
-3.30557894706726074 1.4659569263458252 18.2258472442626953 193 160 143
5.14926576614379883 4.73856067657470703 23.4841156005859375 207 192 185
4.38460397720336914 5.18190193176269531 23.7423496246337891 184 167 157
-3.63331484794616699 5.47782325744628906 23.3053016662597656 205 195 186
-4.86900520324707031 5.49165010452270508 23.2659721374511719 202 188 181
-3.30243778228759766 1.5048907995223999 20.0879878997802734 186 142 123
-5.04158353805541992 5.72664737701416016 23.2683296203613281 181 164 152
4.43177461624145508 5.2092442512512207 24.0217761993408203 184 167 157
6.97912359237670898 5.7148747444152832 23.5323753356933594 204 186 172
-3.63331484794616699 5.47782325744628906 23.3053016662597656 205 195 186
-3.48084521293640137 1.5168921947479248 20.2835216522216797 104 55 38
-4.86900520324707031 5.49165010452270508 23.2659721374511719 202 188 181
6.68207311630249023 3.29213547706604004 23.5394744873046875 209 199 189
-2.31047296524047852 1.48579740524291992 22.1690082550048828 120 69 59
-2.23631811141967773 1.01261413097381592 18.5937213897705078 93 54 45
-4.29754257202148438 4.12766456604003906 23.3122520446777344 188 174 165
-3.41291260719299316 5.14354324340820312 23.3185539245605469 210 197 188
0.581842124462127686 -2.09001898765563965 20.7568817138671875 136 103 92
