ply
format ascii 1.0
element vertex 656
property float x
property float y
property float z
property uchar red
property uchar green
property uchar blue
end_header
-3.7954246997833252 -3.53910732269287109 51.1611251831054688 157 140 120
-5.9821324348449707 -3.16208505630493164 51.2694931030273438 171 164 148
-4.37384271621704102 -3.77064752578735352 51.1013221740722656 164 154 143
-2.10291481018066406 -3.37955546379089355 51.1169662475585938 196 226 226
-5.66768312454223633 -5.42029094696044922 50.6044120788574219 160 147 131
-3.00975203514099121 -5.23127079010009766 50.3436126708984375 108 126 143
-1.44341552257537842 -3.39947724342346191 51.2431449890136719 147 134 117
-2.48090910911560059 -5.60625696182250977 50.7383880615234375 153 143 131
-6.12918901443481445 -3.79444742202758789 51.1285285949707031 167 160 144
-5.6916966438293457 -4.90584850311279297 50.7581443786621094 162 152 140
-2.13472127914428711 -3.42391276359558105 51.1552200317382812 179 206 230
-3.41581916809082031 -6.10277414321899414 50.559967041015625 69 60 51
-2.6052398681640625 -4.62975168228149414 50.8994178771972656 90 96 96
-1.69949769973754883 -2.80599761009216309 51.3748130798339844 132 118 91
-3.09108400344848633 -5.51933526992797852 50.8638877868652344 171 204 236
-2.78813362121582031 -5.62525701522827148 50.1328392028808594 97 87 77
-2.46660804748535156 -3.31800222396850586 51.2517318725585938 129 108 79
-2.00273704528808594 -5.03209543228149414 50.8988227844238281 148 140 127
-2.74190139770507812 -5.57039546966552734 50.4395179748535156 34 38 39
-3.14005708694458008 -5.30118370056152344 50.6771163940429688 119 107 81
-2.72748208045959473 -5.53692626953125 50.4431266784667969 193 195 201
-2.7600398063659668 -5.47875642776489258 50.4747276306152344 81 95 117
-3.51519274711608887 -5.96823835372924805 50.4019584655761719 111 136 166
-5.31396389007568359 -7.22208786010742188 61.0482978820800781 101 102 96
-3.16721439361572266 -5.32103252410888672 50.4917106628417969 171 175 181
-2.99457764625549316 -5.22845745086669922 50.525054931640625 84 96 110
-1.96800553798675537 -3.63161849975585938 51.1568984985351562 181 208 219
-3.00285649299621582 -5.21632289886474609 50.5265388488769531 217 222 225
-2.85732936859130859 -4.44588088989257812 50.9169120788574219 201 224 237
-2.96350479125976562 -4.22899770736694336 50.9553298950195312 182 210 226
-2.68700957298278809 -4.39408445358276367 50.9529266357421875 219 243 254
-2.11615943908691406 -3.49239158630371094 51.0791816711425781 208 232 234
-1.83298766613006592 -6.17113161087036133 50.5408859252929688 127 111 86
-1.97978746891021729 -3.66591143608093262 50.9323883056640625 158 195 211
-3.03661942481994629 -4.21662235260009766 50.9860420227050781 201 221 230
-4.37050390243530273 -4.46888160705566406 50.9450950622558594 162 153 138
-1.97105777263641357 -3.5713193416595459 51.1537208557128906 161 183 186
-2.17164111137390137 -3.46886229515075684 51.14166259765625 160 186 198
-2.18339443206787109 -3.44696044921875 51.1465301513671875 147 176 191
-2.9252469539642334 -4.42267513275146484 50.947174072265625 235 251 254
-3.03435158729553223 -5.67912673950195312 50.4226531982421875 125 146 177
-3.24846482276916504 -5.80590629577636719 50.3145713806152344 76 95 123
-3.56087207794189453 -5.53972148895263672 50.4032821655273438 102 93 86
-3.41102266311645508 -5.46741437911987305 50.4535789489746094 176 188 188
-3.25562286376953125 -3.49910998344421387 51.2192573547363281 156 140 124
-2.81237077713012695 -5.37693500518798828 50.5229873657226562 91 96 113
-2.85974431037902832 -5.1935572624206543 50.5414009094238281 73 76 69
-2.69954276084899902 -4.69248437881469727 50.9690399169921875 227 242 249
-2.75102448463439941 -4.45052051544189453 50.9403076171875 203 236 244
-2.67807126045227051 -4.46468782424926758 50.9303016662597656 158 177 186
-2.68483495712280273 -4.46116161346435547 50.9333457946777344 143 169 179
-2.0134131908416748 -3.84177064895629883 51.0764350891113281 136 155 162
-4.54028701782226562 -4.00742626190185547 50.7569961547851562 143 126 106
-2.13126373291015625 -3.27683782577514648 51.1527328491210938 78 89 79
-1.17485547065734863 -3.07873773574829102 51.2358169555664062 148 139 124
-3.59930801391601562 -5.5824131965637207 50.4151039123535156 176 188 193
-3.59261107444763184 -3.06497287750244141 51.3773193359375 140 127 98
-2.85222673416137695 -4.47119903564453125 50.9601554870605469 254 251 255
-2.81955862045288086 -4.47359323501586914 50.9965858459472656 177 207 224
-2.7335202693939209 -4.40483760833740234 50.9877815246582031 133 160 177
-1.19260215759277344 -5.63208484649658203 50.5812110900878906 0 0 0
-2.96938323974609375 -4.29090452194213867 50.9760551452636719 189 213 232
-1.8534235954284668 -3.72383809089660645 51.1453170776367188 183 201 207
-1.91175365447998047 -3.65218639373779297 51.1327247619628906 148 169 175
-5.92943811416625977 -5.44156122207641602 50.56304931640625 143 125 103
-1.94965982437133789 -3.5827631950378418 51.101715087890625 189 215 212
-5.18540000915527344 -2.77973103523254395 51.4642257690429688 173 161 137
-2.75574588775634766 -5.58106899261474609 50.4511489868164062 38 38 46
-2.9641716480255127 -4.22976827621459961 50.9599075317382812 177 204 233
-2.86220407485961914 -4.23898220062255859 50.9915809631347656 143 176 195
-2.4453284740447998 -4.6109309196472168 50.8700180053710938 119 105 79
-1.9486231803894043 -3.50780296325683594 51.1028404235839844 120 117 116
-2.76198649406433105 -5.52376747131347656 50.5020027160644531 90 101 115
-2.78471469879150391 -5.44733095169067383 50.4744415283203125 98 109 119
-2.8556821346282959 -4.39848470687866211 50.9601287841796875 190 212 232
-2.91790771484375 -5.15186405181884766 50.5270729064941406 73 65 53
-1.6878892183303833 -6.20354080200195312 50.2824058532714844 206 215 213
-2.85673165321350098 -4.39936637878417969 50.9652328491210938 190 212 232
-3.57679963111877441 -6.12796258926391602 50.3120155334472656 81 71 69
-1.96203958988189697 -3.86946702003479004 51.0796966552734375 242 255 255
-1.92157840728759766 -3.84567737579345703 51.04888916015625 153 179 209
-4.70332479476928711 -4.09620475769042969 51.0409126281738281 163 152 134
-2.18526291847229004 -3.37671399116516113 51.1349143981933594 179 216 246
-2.09507656097412109 -3.50897669792175293 51.0917243957519531 157 185 196
-1.99325203895568848 -3.81382846832275391 51.0388412475585938 205 230 229
-6.75151252746582031 -5.06622219085693359 50.8577384948730469 168 160 149
-3.4825446605682373 -5.94849920272827148 50.3933601379394531 118 133 166
-1.92247605323791504 -3.56057381629943848 51.1196861267089844 87 98 92
-2.17339944839477539 -3.48336219787597656 51.1551322937011719 155 183 197
-1.46315813064575195 -5.67741966247558594 50.7402458190917969 144 131 117
-2.19124484062194824 -3.33695650100708008 51.1917533874511719 153 176 184
-2.64932155609130859 -4.67801856994628906 50.8738822937011719 88 92 90
-6.18663644790649414 -3.77393269538879395 51.07379150390625 169 161 148
-4.85521650314331055 -3.69972896575927734 51.1303291320800781 166 153 136
-2.03159260749816895 -3.58898282051086426 51.1292343139648438 145 173 185
-2.00269103050231934 -3.64289450645446777 51.1135139465332031 237 255 255
-6.00301122665405273 -4.1048884391784668 51.0559768676757812 173 164 146
-4.41494083404541016 -5.00939464569091797 50.8248138427734375 156 149 133
-3.73302578926086426 -6.1795654296875 50.2570915222167969 11 10 8
-2.10303258895874023 -3.75021052360534668 51.1258430480957031 135 156 176
-1.9916846752166748 -3.71602582931518555 51.0478630065917969 150 180 206
-4.97913312911987305 -2.09595966339111328 51.5271148681640625 174 161 146
-2.07759189605712891 -3.50555014610290527 51.1655731201171875 159 187 195
-3.55481314659118652 -3.12782573699951172 51.3001747131347656 161 149 133
-5.87467479705810547 -2.37658834457397461 51.4894256591796875 177 168 153
-5.2053227424621582 -3.16591501235961914 51.2036056518554688 167 155 142
-5.70688295364379883 -3.8607947826385498 51.053314208984375 148 133 112
-4.87116289138793945 -3.34431815147399902 51.1564178466796875 170 155 134
-4.39407110214233398 -2.91105842590332031 51.32708740234375 166 153 129
-2.96705198287963867 -4.00648403167724609 51.0134391784667969 97 104 110
-2.98066592216491699 -5.56436777114868164 50.4135551452636719 172 205 240
-4.3956608772277832 -2.80712699890136719 51.3253974914550781 168 152 133
-4.84388256072998047 -5.06073713302612305 50.7265167236328125 158 151 135
-3.56147575378417969 -2.80099844932556152 51.3850822448730469 164 151 134
-4.08130216598510742 -2.15942287445068359 51.5128822326660156 149 132 104
-3.56571459770202637 -3.56228494644165039 51.2150802612304688 138 125 98
-2.8645927906036377 -2.14751386642456055 51.4758682250976562 135 120 87
-2.16548824310302734 -5.36181306838989258 50.7734031677246094 147 133 120
-1.53309512138366699 -5.4730381965637207 50.7584304809570312 147 133 120
-5.71956777572631836 -3.5693819522857666 51.1315574645996094 171 169 157
-2.80338191986083984 -4.27170705795288086 51.02911376953125 234 255 255
-1.52918469905853271 -5.47963905334472656 50.8164405822753906 147 133 120
-2.93134260177612305 -4.88110589981079102 50.8157157897949219 129 112 92
-5.93854856491088867 -3.39570236206054688 51.2238235473632812 170 158 146
-5.08053207397460938 -3.51863312721252441 51.1722068786621094 165 159 147
-3.21052932739257812 -5.49559545516967773 50.4303703308105469 227 255 255
-5.08223915100097656 -3.51822376251220703 51.1785697937011719 165 159 147
-3.1448981761932373 -2.70243978500366211 51.3711013793945312 160 151 137
-6.5046844482421875 -2.89342164993286133 51.2411842346191406 158 141 122
-4.81263160705566406 -2.89151382446289062 51.3579750061035156 0 0 0
-3.49205398559570312 -2.33381128311157227 51.4438095092773438 165 153 131
-1.46150994300842285 -5.66543865203857422 50.6462898254394531 144 130 117
-3.11358499526977539 -5.55014514923095703 50.6116180419921875 196 230 255
-6.24297761917114258 -5.27376890182495117 50.6520004272460938 164 149 130
-1.99694693088531494 -5.27021217346191406 50.8319091796875 146 140 126
-6.45179557800292969 -4.60191488265991211 50.7930068969726562 151 134 112
-3.03443431854248047 -5.65082311630249023 50.4270057678222656 142 168 202
-3.25479531288146973 -4.71137666702270508 50.945892333984375 131 109 86
-5.91006135940551758 -4.43562984466552734 50.8552436828613281 147 132 111
-1.72884571552276611 -4.38025999069213867 51.0005111694335938 147 134 118
-5.71968460083007812 -3.78306913375854492 51.0874710083007812 174 159 140
-6.26821327209472656 -3.65753912925720215 51.1920433044433594 156 140 117
-6.44693136215209961 -2.77449679374694824 51.304290771484375 177 165 151
-4.90827131271362305 -3.4044806957244873 51.1887397766113281 171 155 138
-2.94791650772094727 -4.10805034637451172 50.9414825439453125 144 166 179
-3.65057134628295898 -3.54647088050842285 51.1766204833984375 139 128 96
-2.09224796295166016 -3.75852537155151367 51.1235923767089844 112 133 149
-5.12931346893310547 -3.3500213623046875 51.1294212341308594 152 130 106
-3.63093876838684082 -5.53243112564086914 50.7094154357910156 122 100 76
-2.02715134620666504 -5.65652656555175781 50.7515716552734375 132 110 89
-4.46560096740722656 -3.30803561210632324 51.226531982421875 169 157 133
-3.60036730766296387 -4.77262210845947266 50.8705482482910156 142 132 120
-6.28165721893310547 -5.1166229248046875 50.7202987670898438 148 130 107
-2.2336280345916748 -2.90288639068603516 51.3250617980957031 149 140 125
-1.71010303497314453 -5.87437629699707031 50.6201667785644531 143 131 120
-4.89732456207275391 -2.27235746383666992 51.4885978698730469 152 136 108
-4.89729547500610352 -2.27371978759765625 51.4811592102050781 152 136 108
-1.9547499418258667 -3.84664058685302734 51.1174736022949219 153 186 205
-3.59869480133056641 -5.61869335174560547 50.4140472412109375 191 219 241
-3.14614582061767578 -5.76752376556396484 50.3892402648925781 64 80 105
-3.02652835845947266 -4.09900045394897461 51.0394744873046875 182 192 197
-2.73166251182556152 -5.55547761917114258 50.4416351318359375 49 45 44
-2.86160016059875488 -5.20940542221069336 50.5012359619140625 136 139 145
-2.80347657203674316 -4.50262546539306641 50.9430923461914062 204 232 245
-2.85299992561340332 -4.4589691162109375 50.9050445556640625 168 193 200
-2.75098896026611328 -4.47626876831054688 50.9855117797851562 147 175 189
-5.50387096405029297 -3.64674067497253418 51.0993003845214844 171 156 138
-2.99762272834777832 -4.32813262939453125 50.9820404052734375 204 223 229
-2.79663753509521484 -4.39602088928222656 50.9906997680664062 164 192 204
-2.7825160026550293 -4.33469724655151367 50.9926033020019531 137 163 178
-2.68624615669250488 -4.37384986877441406 50.9392929077148438 114 142 153
-6.11610507965087891 -4.92118930816650391 50.6666488647460938 150 138 123
-2.94522380828857422 -5.25318765640258789 50.5108795166015625 129 157 179
-2.93537616729736328 -4.20458030700683594 51.0400466918945312 156 187 208
-2.8192894458770752 -5.27550506591796875 50.4956703186035156 60 59 56
-2.83800435066223145 -4.20922231674194336 51.0022163391113281 194 215 226
-2.17099976539611816 -3.61915755271911621 51.1440277099609375 134 153 160
-6.21451425552368164 -5.7303919792175293 50.8942146301269531 158 151 135
-1.88653361797332764 -3.66490793228149414 51.1120033264160156 152 172 182
-2.89096474647521973 -4.26656103134155273 51.0235710144042969 141 172 187
-2.19730949401855469 -5.80369424819946289 50.598876953125 151 139 125
-2.20956230163574219 -3.52973508834838867 51.0973625183105469 186 207 224
-5.36726856231689453 -4.1205754280090332 51.0251235961914062 162 152 142
-2.09642553329467773 -3.48308825492858887 51.1587867736816406 171 197 212
-6.60315752029418945 -3.98970985412597656 50.95941162109375 156 140 117
-2.06524348258972168 -3.45274758338928223 51.1511459350585938 238 255 248
-2.8495020866394043 -4.25071573257446289 51.0184745788574219 136 170 195
-2.00306057929992676 -3.4768517017364502 51.14208984375 173 185 181
-6.28944683074951172 -5.85756444931030273 50.2834205627441406 144 129 106
-2.25658035278320312 -3.31707620620727539 51.1311531066894531 136 157 174
-6.56720399856567383 -3.31814765930175781 50.9497032165527344 171 162 147
-5.5027623176574707 -3.6451106071472168 51.0956916809082031 172 159 136
-3.09895873069763184 -5.76887655258178711 50.35491943359375 47 55 66
-3.57408428192138672 -5.57503128051757812 50.4695281982421875 169 182 198
-3.20997905731201172 -5.4942626953125 50.43597412109375 231 255 255
-3.73316359519958496 -4.96488046646118164 50.7731208801269531 145 132 116
-2.97791051864624023 -5.20653295516967773 50.5579948425292969 202 210 214
-2.88971877098083496 -5.67940568923950195 50.4957809448242188 123 130 136
-2.87255144119262695 -5.14350557327270508 50.5587005615234375 110 99 79
-2.76839590072631836 -4.52852392196655273 50.9765777587890625 151 182 199
-6.38098335266113281 -5.51453971862792969 50.5643959045410156 161 155 141
-5.36369943618774414 -6.37657642364501953 50.7639694213867188 151 144 139
-2.6635887622833252 -4.65980625152587891 50.9854660034179688 167 185 197
-1.92355179786682129 -3.92054367065429688 51.02008056640625 217 228 255
-2.63380074501037598 -4.62989044189453125 50.9183197021484375 173 186 196
-2.83060932159423828 -4.48255825042724609 50.9508018493652344 172 197 214
-5.17108726501464844 -4.54644918441772461 50.835174560546875 148 137 119
-3.0123140811920166 -4.2422785758972168 50.9120407104492188 208 232 244
-2.7823178768157959 -4.24735498428344727 50.9695472717285156 123 139 154
-1.18355655670166016 -4.50655746459960938 50.9874610900878906 150 138 123
-4.40853738784790039 -6.00887441635131836 50.43048095703125 121 94 75
-2.74064826965332031 -4.31987762451171875 51.0066909790039062 119 138 155
-2.97027921676635742 -5.19046449661254883 50.39739990234375 175 182 178
-3.01431369781494141 -4.07420110702514648 51.0279998779296875 153 162 171
-2.007659912109375 -3.82299518585205078 51.0798187255859375 230 253 243
-2.12004566192626953 -3.68955636024475098 51.1195755004882812 133 155 174
-1.92856931686401367 -3.59678554534912109 51.1171379089355469 137 155 155
-2.171661376953125 -3.3780515193939209 51.1691017150878906 191 225 255
-4.41656970977783203 -5.00787210464477539 50.8276405334472656 158 150 137
-3.7990422248840332 -5.64155101776123047 49.5147018432617188 105 99 92
-2.71859645843505859 -5.54656076431274414 50.4485435485839844 43 36 39
-3.64750838279724121 -6.06108522415161133 50.2262802124023438 46 61 90
-2.66765737533569336 -4.65520429611206055 50.8528404235839844 186 206 222
-2.18516278266906738 -3.37637805938720703 51.1168251037597656 178 217 255
-2.76698780059814453 -4.54731607437133789 50.9738922119140625 197 228 246
-2.91671013832092285 -4.34969568252563477 51.0164680480957031 225 249 255
-2.9379267692565918 -4.12549018859863281 50.9813156127929688 142 168 187
-4.15888786315917969 -5.02955913543701172 50.8035507202148438 145 143 127
-2.91414165496826172 -4.06550025939941406 50.9918670654296875 111 136 158
-2.02902865409851074 -3.74948430061340332 51.1448516845703125 152 182 206
-3.8589627742767334 -5.85744762420654297 52.5860137939453125 175 189 200
-1.95170497894287109 -3.71188664436340332 51.0615882873535156 191 220 238
-2.2121424674987793 -3.55972003936767578 51.1320114135742188 136 157 174
-1.09544837474822998 -5.35543441772460938 50.6453208923339844 151 144 128
-2.11730337142944336 -3.40540862083435059 51.1489944458007812 186 214 225
-3.0395810604095459 -5.69302606582641602 50.3662147521972656 68 88 113
-2.78613758087158203 -4.58192968368530273 50.9087295532226562 224 247 255
-2.69876551628112793 -4.39665603637695312 50.9657821655273438 187 214 219
-4.0567927360534668 -5.88234567642211914 50.81640625 102 99 89
-3.10706782341003418 -4.14390325546264648 51.0067558288574219 82 85 78
-1.96882534027099609 -3.74843645095825195 51.09942626953125 150 186 201
-3.10621285438537598 -4.17773628234863281 50.9705924987792969 166 175 182
-2.47119545936584473 -3.49117112159729004 51.2133750915527344 130 118 128
-2.24483251571655273 -3.53365230560302734 51.1705055236816406 130 150 174
-3.42833280563354492 -5.4170379638671875 50.8302078247070312 121 103 81
-2.20671319961547852 -3.51831150054931641 51.1087455749511719 182 208 223
-2.9013373851776123 -4.20330524444580078 50.96282958984375 119 147 168
-2.11677289009094238 -5.86171102523803711 50.6473388671875 151 139 127
-3.28179144859313965 -5.69328832626342773 47.2492485046386719 59 62 79
-5.87229776382446289 -4.69975614547729492 50.7965927124023438 169 160 148
-3.83683276176452637 -5.7550358772277832 51.0273971557617188 96 92 83
-1.98652160167694092 -5.34219455718994141 50.6907691955566406 148 138 126
-3.21187233924865723 -5.2391505241394043 50.7237358093261719 123 106 80
-5.7861018180847168 -4.67589378356933594 50.8044548034667969 166 156 139
-3.00417184829711914 -3.17796540260314941 51.1181564331054688 158 146 130
-5.82758998870849609 -3.92463946342468262 51.0607948303222656 161 156 141
-6.11004781723022461 -4.97313785552978516 50.7087135314941406 144 131 112
-6.11004781723022461 -4.97313785552978516 50.7087135314941406 144 131 112
-3.45596885681152344 -5.94690990447998047 50.3833694458007812 98 113 143
-3.84115386009216309 -5.02331924438476562 50.826995849609375 145 132 116
-4.01125001907348633 -3.41963458061218262 51.1572914123535156 162 149 130
-3.79583501815795898 -5.70150232315063477 50.4449653625488281 170 176 177
-1.22278642654418945 -3.36033916473388672 51.2474250793457031 149 140 125
-1.68513369560241699 -2.6039268970489502 51.340789794921875 157 141 118
-2.7752232551574707 -5.59586286544799805 50.5475120544433594 59 58 53
-4.88965654373168945 -3.81016135215759277 51.2217597961425781 164 151 134
-3.7490537166595459 -5.39539718627929688 50.72442626953125 139 123 108
-2.76565241813659668 -4.26401805877685547 50.9449615478515625 132 153 172
-6.01223993301391602 -4.93007946014404297 50.7641830444335938 158 148 136
-4.28795766830444336 -4.3656153678894043 51.0103569030761719 144 129 106
-6.21284723281860352 -5.47873020172119141 50.5822029113769531 145 130 107
-3.09034109115600586 -5.46167516708374023 50.2237129211425781 176 209 242
-3.0265195369720459 -5.23573017120361328 50.4870185852050781 180 182 180
-3.14230751991271973 -5.85522842407226562 50.3805770874023438 74 60 47
-2.84087777137756348 -4.18287849426269531 51.0063362121582031 118 142 152
-2.75298690795898438 -4.28410673141479492 50.9602279663085938 70 83 90
-4.65882539749145508 -4.67237663269042969 50.9175987243652344 164 154 142
-4.58768463134765625 -3.01774096488952637 51.1034011840820312 147 133 107
-5.86076784133911133 -4.6067047119140625 50.8157310485839844 147 131 114
-5.85458898544311523 -4.6022496223449707 50.7831306457519531 147 131 114
-6.42324542999267578 -2.78521347045898438 51.36053466796875 178 168 158
-3.17904233932495117 -5.30344963073730469 50.45819091796875 112 106 95
-2.15623569488525391 -3.24271535873413086 51.1136093139648438 93 94 86
-2.11332559585571289 -3.66422367095947266 51.1024742126464844 189 214 222
-2.06239652633666992 -2.82579588890075684 51.3082771301269531 132 120 98
-3.73853206634521484 -3.24667978286743164 51.3809280395507812 164 153 133
-3.68393659591674805 -6.06725454330444336 50.4581146240234375 119 142 170
-4.28657770156860352 -4.36736488342285156 51.0057640075683594 144 129 106
-5.18466901779174805 -3.64029598236083984 51.1322364807128906 148 135 112
-3.74322009086608887 -5.60099887847900391 49.5765304565429688 172 185 196
-3.30507802963256836 -5.4120030403137207 50.6481094360351562 0 0 0
-2.77330613136291504 -5.45507717132568359 50.4714393615722656 90 99 112
-2.70244669914245605 -4.61535882949829102 50.9835014343261719 158 189 214
-2.81357359886169434 -4.44932079315185547 50.9755020141601562 194 225 243
-2.66585564613342285 -4.54193210601806641 50.9667282104492188 163 195 220
-2.81457209587097168 -4.28982305526733398 50.9954185485839844 127 152 159
-2.84861302375793457 -5.17328977584838867 50.5874404907226562 111 105 92
-2.73095417022705078 -4.38002538681030273 50.9678497314453125 205 223 237
-6.7298884391784668 -5.88129711151123047 50.297882080078125 160 156 144
-2.22490620613098145 -3.51445364952087402 51.1447296142578125 186 210 220
-2.87173151969909668 -5.23583030700683594 50.5377464294433594 90 105 116
-2.97883343696594238 -5.69416093826293945 50.3834381103515625 99 113 132
-2.62391924858093262 -4.46270895004272461 50.9084281921386719 119 137 151
-2.87396836280822754 -5.25923347473144531 50.4692878723144531 116 135 159
-3.39325141906738281 -5.92273807525634766 50.455352783203125 30 45 66
-2.06534433364868164 -3.47435998916625977 51.2059249877929688 166 190 192
-2.83121037483215332 -4.44402933120727539 50.9862098693847656 152 179 186
-3.31981801986694336 -5.80304765701293945 50.3232078552246094 147 170 204
-2.92436814308166504 -4.10228538513183594 50.9933738708496094 220 243 232
-2.58408713340759277 -3.59745645523071289 50.6415290832519531 107 104 113
-3.2747349739074707 -5.93109035491943359 50.4517707824707031 71 57 54
-3.12625622749328613 -5.75085115432739258 50.3595809936523438 50 65 89
-2.75827527046203613 -4.63500785827636719 50.9339485168457031 243 255 255
-3.56566309928894043 -6.06092119216918945 50.371673583984375 55 59 68
-3.98227810859680176 -5.70841312408447266 50.6505393981933594 135 123 107
-1.82143902778625488 -3.78978252410888672 51.1039810180664062 194 216 227
-5.64316844940185547 -2.99785614013671875 51.3030319213867188 174 158 142
-6.00574588775634766 -4.91508102416992188 50.7195854187011719 171 164 161
-3.56317591667175293 -2.80089640617370605 51.4014434814453125 165 156 141
-1.7078249454498291 -5.87173318862915039 50.7531471252441406 148 136 124
-2.61409664154052734 -4.47622108459472656 50.9980850219726562 122 144 165
-4.04871749877929688 -3.95018339157104492 51.0958938598632812 162 145 128
-3.43680381774902344 -5.48286247253417969 50.4476356506347656 195 206 210
-4.75356578826904297 -3.0510261058807373 51.2958450317382812 154 136 114
-3.98500871658325195 -4.04879379272460938 51.0631523132324219 137 115 91
-4.56383466720581055 -2.34052324295043945 51.5024986267089844 148 132 98
-4.86417436599731445 -5.67676877975463867 50.5849189758300781 129 112 93
-5.84774208068847656 -5.61226224899291992 50.5207290649414062 163 152 148
-1.87971353530883789 -3.82112026214599609 51.1040763854980469 151 179 201
-3.43436241149902344 -5.46309518814086914 50.5194282531738281 110 103 87
-2.08434128761291504 -3.47396230697631836 51.1944160461425781 174 195 202
-4.82382392883300781 -3.12095856666564941 51.2727775573730469 175 158 138
-3.55050539970397949 -5.52538537979125977 50.4506645202636719 149 136 123
-2.89731884002685547 -5.69279766082763672 50.44342041015625 89 87 87
-6.22661018371582031 -3.94233822822570801 50.9706268310546875 175 164 146
-2.88775920867919922 -5.19511175155639648 50.7437629699707031 104 96 77
-2.71414732933044434 -4.58220100402832031 50.9084281921386719 139 165 178
-2.31662249565124512 -3.3520805835723877 51.1620521545410156 83 92 93
-2.3696751594543457 -5.09900522232055664 50.8788948059082031 0 0 0
-2.63501811027526855 -4.58703088760375977 50.9391326904296875 195 215 225
-3.11929059028625488 -5.7484130859375 50.4541015625 52 68 94
-2.87205624580383301 -4.47165298461914062 50.9740982055664062 177 193 194
-5.17108726501464844 -4.54644918441772461 50.835174560546875 148 137 119
-2.78463625907897949 -4.49167013168334961 50.9619903564453125 140 177 188
-2.17085719108581543 -3.26465058326721191 50.9545783996582031 157 175 184
-3.35355973243713379 -5.41759347915649414 50.5293617248535156 115 108 92
-3.11391687393188477 -5.25208377838134766 50.1637077331542969 120 110 98
-2.04308676719665527 -3.48543572425842285 51.1343002319335938 164 188 192
-2.32537484169006348 -5.6988377571105957 50.8262596130371094 128 111 90
-2.7725987434387207 -4.41814279556274414 50.9478874206542969 211 248 253
-2.19341683387756348 -3.33446192741394043 51.1939277648925781 158 177 181
-2.1588442325592041 -5.83652400970458984 50.7125320434570312 148 138 126
-2.59136748313903809 -4.4995884895324707 50.92767333984375 118 143 165
-4.02344560623168945 -4.24626398086547852 51.0151290893554688 154 141 124
-4.1025543212890625 -3.8287360668182373 51.2279167175292969 160 149 131
-5.72717094421386719 -3.46103048324584961 51.1608161926269531 172 160 144
-5.28278636932373047 -2.99559545516967773 51.3318214416503906 171 160 138
-1.98560678958892822 -3.53470849990844727 51.1883468627929688 187 214 209
-5.7621464729309082 -5.10698223114013672 50.9905471801757812 159 156 141
-2.2696993350982666 -5.03408479690551758 50.847503662109375 154 141 133
-1.98117518424987793 -4.66615772247314453 50.8843154907226562 148 135 119
-5.71194601058959961 -3.86144280433654785 51.0583381652832031 150 134 110
-5.506317138671875 -3.01701068878173828 51.2654838562011719 169 159 134
-6.70845890045166016 -5.24953222274780273 50.7880210876464844 168 163 151
-6.7262115478515625 -5.27004289627075195 50.6470298767089844 167 161 149
-2.16195368766784668 -3.45961380004882812 51.1380119323730469 189 216 227
-5.00797700881958008 -4.06045055389404297 51.0214080810546875 161 153 142
-5.32266569137573242 -3.86609792709350586 51.1100006103515625 169 161 154
-4.70469045639038086 -4.095550537109375 51.0348892211914062 163 152 134
-6.21145486831665039 -4.95899677276611328 50.7179946899414062 166 153 137
-5.47587728500366211 -3.13114547729492188 51.2780189514160156 153 131 107
-5.06278228759765625 -6.24856281280517578 50.5935592651367188 141 131 119
-4.00930929183959961 -2.99578976631164551 51.2524337768554688 164 152 136
-3.01488471031188965 -5.84444332122802734 50.5587539672851562 71 57 44
-5.71704292297363281 -2.01070952415466309 51.4055557250976562 179 167 151
-3.06005048751831055 -3.43348026275634766 51.3467216491699219 153 142 122
-5.38617944717407227 -2.00348448753356934 51.417144775390625 175 160 139
-6.24297761917114258 -5.27376890182495117 50.6520004272460938 165 152 136
-2.00442028045654297 -5.03028726577758789 50.8980560302734375 150 138 124
-4.91693592071533203 -3.8529050350189209 50.830230712890625 166 151 128
-6.55613565444946289 -3.32582473754882812 51.1381607055664062 174 158 142
-3.25469470024108887 -3.49899864196777344 51.2258529663085938 156 140 124
-5.8200078010559082 -4.51996898651123047 50.87066650390625 169 154 133
-4.73094081878662109 -2.12180542945861816 51.4264297485351562 173 161 139
-3.92471456527709961 -2.48925232887268066 51.6481056213378906 148 132 109
-5.25938510894775391 -6.03800868988037109 50.6488380432128906 147 138 123
-3.11388373374938965 -5.52161169052124023 50.7207603454589844 0 0 0
-6.2331385612487793 -5.74390602111816406 50.4464302062988281 162 151 133
-2.11628437042236328 -3.43584346771240234 51.1274528503417969 72 92 108
-1.92294037342071533 -3.6230010986328125 51.1116142272949219 240 255 251
-2.81811380386352539 -5.30457544326782227 50.4934310913085938 75 72 78
-5.25047016143798828 -4.38425588607788086 51.0854721069335938 172 159 142
-2.78570795059204102 -4.50975131988525391 50.9775009155273438 100 121 131
-2.99228334426879883 -5.64666557312011719 50.4490890502929688 141 168 195
-2.72801065444946289 -5.49850749969482422 50.46533203125 119 124 124
-5.1675868034362793 -5.25618648529052734 50.7312774658203125 138 121 95
-2.73973941802978516 -5.44254159927368164 50.4872360229492188 56 57 51
-3.10874223709106445 -4.16339635848999023 51.1521415710449219 80 91 106
-6.63192605972290039 -5.26250410079956055 50.8056602478027344 167 165 153
-2.0077061653137207 -3.82132649421691895 51.084381103515625 221 245 250
-3.25537228584289551 -5.80696296691894531 50.2158851623535156 91 111 138
-2.29810500144958496 -3.32670378684997559 51.1880683898925781 83 97 100
-3.01306056976318359 -3.13980412483215332 51.3125534057617188 152 141 131
-3.39513206481933594 -5.89576578140258789 50.3350982666015625 99 119 147
-3.41523098945617676 -5.93215465545654297 50.3392601013183594 38 49 70
-3.0588226318359375 -5.67801046371459961 50.4017257690429688 126 155 186
-2.78858733177185059 -5.36342048645019531 50.414794921875 162 160 181
-3.74331355094909668 -5.66688919067382812 50.3531951904296875 180 186 186
-2.8793177604675293 -5.19903039932250977 50.4906463623046875 88 100 111
-1.99554121494293213 -5.27114677429199219 50.8370857238769531 133 121 113
-2.63198471069335938 -4.61186504364013672 51.0117454528808594 144 167 177
-2.71150755882263184 -4.4078679084777832 50.9739036560058594 195 223 235
-1.92199695110321045 -3.86634397506713867 51.0207443237304688 231 255 255
-3.22000527381896973 -5.84519290924072266 50.5922012329101562 51 52 66
-2.24031305313110352 -3.29844427108764648 51.3814201354980469 174 188 192
-5.91676568984985352 -5.43272066116333008 50.4872207641601562 143 124 107
-3.21538734436035156 -5.90767288208007812 50.4074287414550781 74 61 53
-5.05318975448608398 -6.58758115768432617 50.7679939270019531 219 219 221
-2.76495838165283203 -5.60365152359008789 50.4088134765625 99 91 78
-2.81222867965698242 -4.36003684997558594 50.9603614807128906 168 195 211
-1.85058367252349854 -3.78384089469909668 51.0492095947265625 146 178 192
-3.00134181976318359 -4.0319976806640625 51.0568580627441406 68 69 72
-1.78771829605102539 -3.76357483863830566 51.0713348388671875 80 104 108
-1.58013832569122314 -6.44780588150024414 50.4577903747558594 204 207 214
-3.31077241897583008 -5.86464405059814453 50.355316162109375 37 51 86
-4.76644086837768555 -5.51604652404785156 50.6212654113769531 150 138 126
-2.90968799591064453 -4.33514785766601562 50.9015083312988281 206 231 231
-4.49138021469116211 -6.59080791473388672 50.7479057312011719 38 49 71
-2.0999598503112793 -5.90570497512817383 50.7400398254394531 150 136 123
-2.7624967098236084 -4.41338205337524414 50.8149528503417969 202 238 255
-3.30155444145202637 -5.89978981018066406 50.3005180358886719 2 6 17
-2.92684769630432129 -4.10037803649902344 50.9957733154296875 223 246 236
-2.19142746925354004 -5.90494298934936523 50.7567253112792969 125 108 90
-4.3087000846862793 -4.8326725959777832 50.8609886169433594 155 146 129
-3.00648784637451172 -4.06584358215332031 51.0125465393066406 203 218 241
-6.23187875747680664 -3.94434142112731934 51.0327262878417969 173 161 147
-3.95586276054382324 -5.80823230743408203 50.7173881530761719 113 109 107
-2.8909599781036377 -4.26767730712890625 50.9232864379882812 139 169 177
-4.60033082962036133 -2.96669411659240723 51.119384765625 148 132 102
-3.22425508499145508 -5.82599639892578125 50.4662551879882812 41 54 76
-5.88068675994873047 -4.07496738433837891 51.0142097473144531 152 138 114
-1.15828108787536621 -3.06061601638793945 51.0844612121582031 149 140 125
-6.27887201309204102 -4.36771821975708008 50.8943367004394531 171 162 147
-2.72062039375305176 -4.64789772033691406 50.8571014404296875 184 210 227
-6.27357196807861328 -4.36722326278686523 50.87353515625 171 162 147
-4.29914569854736328 -3.73120856285095215 51.0842361450195312 159 147 131
-4.46185922622680664 -6.54657745361328125 50.7332191467285156 104 125 152
-4.05077791213989258 -2.84510493278503418 51.2639045715332031 164 156 143
-4.05077791213989258 -2.84510493278503418 51.2639045715332031 164 156 143
-1.70549118518829346 -6.2310338020324707 50.4692726135253906 242 254 239
-2.86103940010070801 -4.40787935256958008 50.9655647277832031 211 238 249
-1.98386502265930176 -6.40468120574951172 50.4592514038085938 100 110 119
-2.9822695255279541 -4.4197993278503418 51.0470733642578125 71 68 61
-2.71388578414916992 -5.48010444641113281 50.4371795654296875 64 65 58
-4.97301149368286133 -4.84192371368408203 50.737335205078125 162 158 147
-2.1754457950592041 -3.63558816909790039 51.11444091796875 129 151 170
-2.21540594100952148 -5.48042392730712891 50.7619819641113281 148 136 122
-3.91663575172424316 -5.77329683303833008 50.3994789123535156 171 177 178
-1.6364818811416626 -6.21800565719604492 50.3020744323730469 254 255 254
-3.1412503719329834 -5.72218132019042969 50.3150367736816406 131 156 186
-2.88682699203491211 -5.67283487319946289 50.4288482666015625 123 130 136
-2.81382918357849121 -5.57812070846557617 50.5368309020996094 117 132 155
-3.14464855194091797 -5.29680013656616211 50.3799247741699219 168 168 168
-2.8861541748046875 -5.62112903594970703 50.6153984069824219 141 158 185
-2.83187317848205566 -5.30439329147338867 50.4621620178222656 91 101 118
-2.93154597282409668 -4.1383514404296875 51.0062332153320312 137 169 181
-3.23251676559448242 -5.30698490142822266 44.6037139892578125 85 112 144
-2.05630660057067871 -3.78659319877624512 51.08258056640625 132 157 158
-1.96827042102813721 -3.70034217834472656 51.0755767822265625 177 209 232
-2.78260374069213867 -5.56148958206176758 50.5214118957519531 92 102 121
-2.57803201675415039 -3.60678219795227051 51.5964088439941406 174 187 202
-2.01651763916015625 -3.61344552040100098 51.1699600219726562 170 190 199
-3.74196600914001465 -6.36098718643188477 50.6545333862304688 125 109 94
-2.13430595397949219 -3.33987188339233398 51.089263916015625 191 219 222
-2.75591063499450684 -5.4607243537902832 50.4600181579589844 223 236 252
-2.11936450004577637 -3.3391871452331543 51.2242164611816406 214 228 239
-2.99290132522583008 -5.76954460144042969 50.5431709289550781 63 55 44
-2.75043344497680664 -4.34955310821533203 50.963104248046875 238 253 254
-2.92767620086669922 -4.19006013870239258 51.0623741149902344 106 140 162
-2.95098733901977539 -5.89128351211547852 50.5746040344238281 123 105 81
-2.71649622917175293 -4.57927751541137695 50.9234504699707031 135 166 184
-4.55069303512573242 -4.01217842102050781 50.8266944885253906 143 126 106
-2.85796380043029785 -4.26485824584960938 50.9602165222167969 152 199 209
-2.11436843872070312 -3.5163116455078125 51.0695610046386719 166 193 210
-3.07691144943237305 -5.98622608184814453 50.6060028076171875 122 106 83
-1.72920417785644531 -6.29884672164916992 50.4781494140625 244 255 255
-3.45927643775939941 -5.9552912712097168 50.29095458984375 41 56 76
-3.28059220314025879 -4.14235448837280273 51.0179939270019531 144 137 121
-3.06279420852661133 -5.80598020553588867 50.3960647583007812 74 60 49
-3.90047001838684082 -6.22630739212036133 56.8099822998046875 0 0 0
-2.00976395606994629 -3.41343164443969727 51.0716285705566406 118 114 106
-1.41140139102935791 -4.48390960693359375 51.0168914794921875 154 144 131
-3.15119147300720215 -5.7811732292175293 50.402587890625 35 50 73
-6.23183393478393555 -3.94646358489990234 51.0272712707519531 175 162 146
-4.448883056640625 -3.94362282752990723 51.0681800842285156 163 157 141
-2.01567602157592773 -3.84157943725585938 51.1126213073730469 137 162 169
-1.47250890731811523 -3.7212975025177002 51.0087165832519531 144 132 116
-1.91241550445556641 -3.82983231544494629 50.9781303405761719 154 183 197
-6.27219676971435547 -5.10930490493774414 50.6745185852050781 149 134 113
-3.7122337818145752 -6.12064933776855469 50.403106689453125 36 46 72
-4.36266565322875977 -5.04476404190063477 50.9205284118652344 0 0 0
-5.06296348571777344 -4.65742683410644531 50.8760032653808594 154 152 137
-5.90482616424560547 -3.78927111625671387 51.0821342468261719 153 137 114
-3.71435761451721191 -3.06156468391418457 51.3016738891601562 145 122 98
-6.06236934661865234 -5.16680717468261719 50.6663551330566406 147 132 112
-3.25413370132446289 -4.51866722106933594 50.9436187744140625 143 133 121
-2.76537942886352539 -4.56324577331542969 50.8874053955078125 132 154 159
-4.5372920036315918 -3.86715245246887207 51.1227455139160156 147 129 109
-3.92065739631652832 -5.45195484161376953 50.6417350769042969 136 122 108
-4.81615209579467773 -3.55432534217834473 51.1718788146972656 152 130 106
-2.74832963943481445 -5.45824956893920898 50.4666748046875 204 204 215
-2.91450262069702148 -4.37835979461669922 50.9708213806152344 147 162 183
-3.35813999176025391 -5.83149242401123047 50.3365516662597656 146 173 204
-3.04188680648803711 -5.73551321029663086 50.4984054565429688 80 93 111
-3.21550273895263672 -5.49083614349365234 50.4167823791503906 229 255 255
-3.10234737396240234 -5.53136634826660156 50.50738525390625 206 239 255
-6.44130182266235352 -2.78033018112182617 51.3622703552246094 174 166 153
-3.27739167213439941 -5.46342277526855469 51.5394668579101562 116 107 108
-2.84800219535827637 -5.22553539276123047 50.4708633422851562 190 199 196
-2.00362944602966309 -3.39346671104431152 50.8839988708496094 99 106 112
-3.25837016105651855 -5.80356073379516602 50.4215164184570312 128 143 180
-1.97305893898010254 -3.54801797866821289 51.0281600952148438 190 210 217
-2.90556812286376953 -4.34604120254516602 50.9649238586425781 229 248 252
-3.51440072059631348 -6.12413120269775391 50.5100021362304688 84 83 74
-3.13682222366333008 -5.87886667251586914 50.6411514282226562 83 70 58
-3.46333003044128418 -4.70691585540771484 50.9142570495605469 132 111 89
-2.11606168746948242 -3.60704183578491211 51.1090774536132812 160 186 208
-5.66608190536499023 -5.42019033432006836 50.6115455627441406 156 148 135
-1.93065094947814941 -3.82821345329284668 51.0475044250488281 159 188 204
-2.84171438217163086 -5.25255966186523438 50.521148681640625 135 141 145
-3.5681006908416748 -3.13640928268432617 51.3906173706054688 163 148 127
-3.00241827964782715 -4.23631715774536133 50.9407119750976562 146 176 184
-2.9745185375213623 -4.02460289001464844 51.0074729919433594 158 164 174
-4.34714937210083008 -2.68655705451965332 51.5256614685058594 148 133 110
-2.36861562728881836 -5.1185297966003418 50.8434867858886719 146 133 117
-2.74576640129089355 -5.59863758087158203 50.4738693237304688 64 60 51
-3.8122565746307373 -6.22196578979492188 50.3533592224121094 17 18 22
-2.8652489185333252 -4.22712230682373047 50.9790229797363281 141 172 193
-4.77702999114990234 -3.89732146263122559 50.6950149536132812 147 131 105
-2.61407089233398438 -4.47469949722290039 50.9835395812988281 127 145 169
-3.09616947174072266 -5.75565099716186523 50.3932914733886719 43 50 71
-2.84302878379821777 -5.28102350234985352 50.5088424682617188 84 93 108
-2.80946922302246094 -4.34645605087280273 50.9206123352050781 163 191 200
-2.97617340087890625 -5.18544960021972656 50.5016288757324219 68 70 60
-2.84886527061462402 -5.21463823318481445 50.5330009460449219 67 73 60
-3.12607192993164062 -4.17943048477172852 51.0078926086425781 81 90 95
-3.42943739891052246 -5.459197998046875 50.4074172973632812 101 100 88
-3.17964744567871094 -5.32484674453735352 50.5623130798339844 162 176 185
-3.40870904922485352 -5.07844924926757812 50.8181037902832031 125 114 99
-2.11964273452758789 -3.52051925659179688 51.0967330932617188 163 192 209
-6.16703319549560547 -3.54228639602661133 51.1644172668457031 179 169 157
-6.68157052993774414 -4.08698940277099609 51.0137252807617188 174 160 143
-1.03707921504974365 -4.79559469223022461 51.0586395263671875 145 137 123
-3.25630927085876465 -3.49883842468261719 51.2006912231445312 155 142 125
-1.67316114902496338 -3.74363374710083008 51.1332664489746094 140 125 107
-1.7926323413848877 -3.78750348091125488 51.0443840026855469 180 197 204
-2.16144180297851562 -3.43649840354919434 51.1066627502441406 232 255 255
-4.57409286499023438 -6.2450408935546875 50.3072624206542969 151 183 208
-2.14743828773498535 -3.29090237617492676 51.1519851684570312 179 188 195
-6.40450620651245117 -3.90443110466003418 50.9984931945800781 176 167 150
-1.98694932460784912 -3.74039602279663086 51.0778999328613281 150 181 208
-4.01950836181640625 -5.83787965774536133 50.4286041259765625 176 193 203
-3.15779280662536621 -5.30665874481201172 50.3501777648925781 164 174 184
-2.92153835296630859 -5.13319540023803711 50.4969596862792969 116 104 81
-2.77038049697875977 -4.42206239700317383 50.9087409973144531 200 234 252
-2.73175334930419922 -4.35932493209838867 51.0160980224609375 200 218 233
-4.71104621887207031 -7.36812257766723633 59.1239242553710938 0 0 0
-2.70719599723815918 -4.36040401458740234 50.9813194274902344 125 147 162
-2.75447916984558105 -4.58439540863037109 50.84759521484375 164 190 210
-5.03210544586181641 -6.69670820236206055 50.55548095703125 97 95 106
-3.05302619934082031 -4.09815263748168945 51.0624542236328125 96 100 99
-1.69203472137451172 -5.8429255485534668 50.1850013732910156 138 126 112
-2.64966130256652832 -3.67243194580078125 49.6149482727050781 177 192 201
-3.5674288272857666 -6.08820867538452148 50.462646484375 18 17 25
-2.51472258567810059 -3.54861974716186523 51.3497886657714844 172 184 200
-2.10822486877441406 -3.51399779319763184 50.9617691040039062 167 199 214
-1.96460580825805664 -3.61646795272827148 51.1011734008789062 178 203 208
-2.04329466819763184 -3.76829814910888672 51.0957298278808594 231 252 254
-2.00107645988464355 -3.63655424118041992 51.0974044799804688 234 255 255
-1.1742088794708252 -5.53016424179077148 50.9545021057128906 151 138 122
-4.5064091682434082 -5.22818899154663086 50.6742897033691406 139 117 97
-6.22004842758178711 -4.96687078475952148 50.7670745849609375 165 158 142
-5.66842079162597656 -3.67972016334533691 51.0992813110351562 154 137 111
-4.84308671951293945 -4.68882608413696289 50.8302688598632812 161 154 138
-3.79057455062866211 -5.64674234390258789 50.5838203430175781 124 111 94
-6.2975006103515625 -4.3415980339050293 50.9105796813964844 169 162 146
-2.22785210609436035 -5.98554229736328125 50.6489143371582031 136 124 108
-5.07485485076904297 -3.7311408519744873 51.1682968139648438 167 156 141
-1.92048871517181396 -6.22963523864746094 50.436126708984375 118 104 75
-6.52679681777954102 -3.63575267791748047 51.0358467102050781 173 163 151
-1.8158414363861084 -3.66769695281982422 51.1776504516601562 120 107 88
-6.54308652877807617 -3.32515454292297363 51.0861740112304688 175 161 152
-1.45925414562225342 -2.95872044563293457 51.2418365478515625 152 143 128
-2.69532680511474609 -4.63781261444091797 50.8674468994140625 152 184 211
-3.59706759452819824 -5.40257501602172852 47.75250244140625 115 105 93
-2.90424776077270508 -4.44486474990844727 50.9380111694335938 207 226 230
-2.72263216972351074 -5.59898090362548828 50.6886062622070312 65 59 51
-3.35069799423217773 -5.42737340927124023 50.4337654113769531 189 198 206
-2.73210310935974121 -5.4922943115234375 50.3469581604003906 113 126 134
-2.9934842586517334 -4.0259699821472168 51.0064468383789062 110 106 100
-3.0087885856628418 -5.21600627899169922 50.4529495239257812 237 248 243
-2.95918822288513184 -5.2081456184387207 50.5714759826660156 79 95 111
-2.89475154876708984 -4.51566886901855469 51.0104598999023438 76 75 71
-2.86412644386291504 -4.50530433654785156 50.8705558776855469 213 219 219
-1.93321621417999268 -3.6731257438659668 51.1162948608398438 158 185 202
-2.1598963737487793 -3.42130327224731445 51.2231369018554688 163 196 203
-3.29737567901611328 -5.40068912506103516 50.5376815795898438 182 195 194
-3.11338472366333008 -5.28496456146240234 50.4356613159179688 153 163 169
-2.83126020431518555 -4.48206710815429688 50.9519920349121094 178 207 221
-2.87722229957580566 -4.19192647933959961 50.9972572326660156 135 159 177
-2.18809056282043457 -3.28295516967773438 51.1889457702636719 157 173 180
-3.36620855331420898 -5.89325857162475586 50.3603858947753906 100 120 145
-2.11832833290100098 -3.70449256896972656 51.1576919555664062 137 159 183
-3.34549641609191895 -6.04419422149658203 50.4151077270507812 67 60 54
-3.52373075485229492 -6.18399333953857422 50.5428123474121094 81 69 55
-3.32786655426025391 -6.01086950302124023 50.529815673828125 89 84 75
-2.1759035587310791 -3.63543558120727539 51.1037483215332031 128 152 176
-3.96531987190246582 -6.3168339729309082 50.3393783569335938 21 17 22
-6.09109210968017578 -5.91707229614257812 50.3590126037597656 160 153 137
-0.923237383365631104 -3.28354811668395996 51.2590599060058594 144 137 122
-4.0684657096862793 -5.80554008483886719 50.4969367980957031 116 102 76
-4.18276166915893555 -4.27524852752685547 51.01153564453125 163 154 137
-1.13818573951721191 -5.34769201278686523 50.9263229370117188 142 131 118
-3.06956171989440918 -4.16487884521484375 50.9878311157226562 137 163 170
-1.95802164077758789 -3.54232668876647949 51.1306037902832031 180 189 197
-3.8122565746307373 -6.22196578979492188 50.3533592224121094 17 18 22
-1.9586036205291748 -3.41491150856018066 51.0039787292480469 82 69 59
-0.875067591667175293 -2.58409261703491211 35.1542892456054688 131 154 160
-3.72952485084533691 -5.56354093551635742 49.3300018310546875 0 0 0
-2.87184333801269531 -5.68053531646728516 50.4374809265136719 84 80 79
-3.53803467750549316 -5.53597259521484375 50.3324470520019531 178 177 193
-2.64285850524902344 -4.54665660858154297 50.9286766052246094 189 223 239
-3.72063970565795898 -5.63776254653930664 50.4061622619628906 117 106 104
-3.5812077522277832 -6.02959060668945312 50.2730636596679688 24 39 61
-5.69611454010009766 -4.90980672836303711 50.7924880981445312 162 152 140
-2.00768446922302246 -5.06657218933105469 51.0719451904296875 0 0 0
-6.54552459716796875 -3.32838129997253418 51.1001052856445312 177 161 147
-3.25659632682800293 -5.83626508712768555 50.3526840209960938 35 50 73
-3.45374584197998047 -5.95944499969482422 50.3724784851074219 37 49 71
-2.72488880157470703 -4.69941902160644531 50.9161186218261719 161 172 169
-2.71078968048095703 -4.37159156799316406 50.9212112426757812 220 241 252
-4.47990655899047852 -6.96364259719848633 56.5153083801269531 45 66 93
-3.35921001434326172 -6.05087804794311523 50.5241889953613281 69 56 55
-4.28354263305664062 -5.98990392684936523 50.7763519287109375 120 112 98
-6.09082317352294922 -5.91660737991333008 50.3674774169921875 164 154 145
-3.42491912841796875 -6.01668071746826172 50.3177680969238281 70 57 56
-3.30304098129272461 -5.8492426872253418 50.4171600341796875 93 111 136
-2.99793791770935059 -5.20385837554931641 50.5811500549316406 74 74 61
-2.96673774719238281 -5.18905162811279297 50.6359748840332031 81 77 72
-4.46045255661010742 -6.09218263626098633 50.3656272888183594 101 92 94
-3.30072188377380371 -5.40952730178833008 50.5822105407714844 177 195 209
-2.79049515724182129 -5.56382179260253906 50.4417800903320312 104 117 142
-1.95440149307250977 -3.63208627700805664 51.1171340942382812 189 210 193
-3.84755063056945801 -6.15886259078979492 50.362823486328125 118 137 167
-3.1947941780090332 -5.76789140701293945 50.3667984008789062 104 129 157
-1.66007006168365479 -6.22468948364257812 50.2678298950195312 153 170 178
