ply
format ascii 1.0
element vertex 678
property float x
property float y
property float z
property uchar red
property uchar green
property uchar blue
end_header
-1.92899179458618164 5.00871467590332031 16.3575534820556641 185 92 79
0.234985828399658203 5.59512615203857422 17.3056526184082031 149 61 49
0.919520854949951172 -11.8683462142944336 23.3588390350341797 88 27 8
-5.11924028396606445 -1.10107457637786865 13.3745050430297852 122 79 72
-7.66814422607421875 0.289350032806396484 15.9737310409545898 26 2 3
-5.19193458557128906 -1.19213128089904785 11.5385341644287109 161 106 103
-4.42422580718994141 -1.17577767372131348 11.9810352325439453 116 73 66
4.26259040832519531 1.22463142871856689 19.1932430267333984 142 45 28
2.29491043090820312 -0.970200300216674805 1.64280319213867188 156 97 81
-3.12132358551025391 -2.61110973358154297 12.2604598999023438 0 0 0
0.205816864967346191 1.03536891937255859 16.8233375549316406 251 181 170
-6.7212371826171875 0.00784067157655954361 13.6395692825317383 125 67 55
0.359646618366241455 2.06286430358886719 17.8957233428955078 217 121 110
-2.81138968467712402 3.47005605697631836 16.7388153076171875 186 92 92
2.48444914817810059 2.94095969200134277 18.0464630126953125 164 64 49
-6.56915807723999023 0.0203376729041337967 13.2783193588256836 125 67 55
0.38078993558883667 0.683454275131225586 17.3910923004150391 202 85 67
-3.91031646728515625 -0.967472314834594727 9.43458652496337891 141 82 74
-5.93186473846435547 1.34161770343780518 9.63525390625 125 81 72
-2.79571199417114258 3.79402923583984375 16.7051181793212891 250 188 167
1.58535492420196533 2.85905718803405762 17.8921127319335938 169 66 49
2.06988167762756348 -15.3938074111938477 25.2358970642089844 59 22 16
-0.206351011991500854 3.27204275131225586 16.7987937927246094 167 59 47
-9.15215587615966797 3.43908047676086426 14.007415771484375 91 49 35
0.444355905055999756 -13.2109050750732422 22.06060791015625 82 39 29
-1.83476340770721436 3.58205771446228027 17.0615882873535156 237 238 234
0.54448932409286499 -9.83441925048828125 21.2975654602050781 113 32 14
-2.2049868106842041 7.67284679412841797 17.2058753967285156 108 31 15
0.633614063262939453 -12.2074117660522461 21.6422100067138672 106 55 41
-2.1120450496673584 2.78814601898193359 17.8253440856933594 213 108 85
2.6286923885345459 5.67101573944091797 17.8470249176025391 146 57 40
4.66949987411499023 -8.08842372894287109 26.5852127075195312 76 19 8
0.136845439672470093 -8.23843955993652344 10.6825771331787109 0 0 0
-2.81485104560852051 3.12651896476745605 15.8301172256469727 198 96 91
1.22773337364196777 2.68812060356140137 4.61352634429931641 0 0 0
-7.29422426223754883 1.00503623485565186 10.1393022537231445 142 95 89
1.67412841320037842 -1.55136013031005859 5.14111661911010742 74 11 1
-5.35881853103637695 12.5050487518310547 11.3920259475708008 171 120 99
4.66911125183105469 5.20283412933349609 14.5328092575073242 172 99 85
-6.27622556686401367 -0.286602377891540527 12.777806282043457 156 107 92
-2.58028984069824219 3.37514758110046387 16.3649501800537109 172 78 80
-0.652207791805267334 2.06560254096984863 16.9737606048583984 252 237 237
-2.62517166137695312 5.47748517990112305 16.6573486328125 158 64 54
-4.47636890411376953 7.68258523941040039 3.88952088356018066 150 93 76
2.84920382499694824 -10.759821891784668 26.1473121643066406 0 0 0
5.22844600677490234 -2.03411269187927246 20.7228240966796875 59 1 0
-8.01396274566650391 0.896065056324005127 15.0392875671386719 0 0 0
2.66102480888366699 6.32391119003295898 13.141535758972168 119 71 59
-0.825951516628265381 1.32193255424499512 16.6388988494873047 178 65 47
-1.53654241561889648 4.02750062942504883 16.1121311187744141 240 241 236
3.87765741348266602 3.8720245361328125 12.7085294723510742 144 72 48
2.02290630340576172 4.06162834167480469 7.16482877731323242 0 0 0
-10.698333740234375 2.95231175422668457 23.8633251190185547 91 37 31
-2.59668469429016113 2.71876358985900879 14.7342977523803711 215 123 105
-2.18926048278808594 11.350372314453125 19.22857666015625 87 32 18
8.87219810485839844 4.74249458312988281 10.1801557540893555 0 0 0
4.98076295852661133 1.51377522945404053 13.7004766464233398 133 58 39
0.2365855872631073 -14.5035390853881836 23.755889892578125 73 33 21
1.79158616065979004 2.68854975700378418 17.1554317474365234 192 95 74
-2.56855940818786621 3.90349054336547852 16.6355476379394531 168 83 95
-1.97603988647460938 6.71660900115966797 16.8760547637939453 137 53 42
1.38387501239776611 3.43584680557250977 18.0833263397216797 191 92 73
-4.82537317276000977 3.14650869369506836 16.1128330230712891 157 64 46
-0.900160551071166992 1.86806309223175049 16.5725536346435547 187 99 111
-2.71657419204711914 3.28410482406616211 15.6066465377807617 251 234 213
-4.77263689041137695 4.2853703498840332 16.5649471282958984 142 52 41
2.98556303977966309 -7.56150436401367188 21.7416362762451172 122 50 29
-2.86450409889221191 3.1836700439453125 16.4940948486328125 178 80 73
-16.3274078369140625 0.683410704135894775 22.8935394287109375 147 109 106
-4.78719043731689453 3.49124050140380859 16.0871181488037109 175 87 70
2.25136756896972656 -8.89110279083251953 21.6084270477294922 102 38 25
-1.61140322685241699 -6.045867919921875 15.3910083770751953 82 24 12
-0.502010643482208252 2.64578127861022949 16.1759109497070312 185 84 70
0.189611539244651794 1.90835976600646973 17.2326583862304688 233 145 144
-1.06664228439331055 -6.63842010498046875 12.6768646240234375 105 48 35
1.74963033199310303 -2.58807182312011719 16.0656909942626953 135 33 17
-1.4608694314956665 2.72645258903503418 16.0778617858886719 218 146 133
0.620353817939758301 1.76761007308959961 18.8401508331298828 219 138 149
4.54538202285766602 2.67428183555603027 13.2854671478271484 136 64 40
2.6836087703704834 5.52066421508789062 12.697880744934082 41 2 3
4.07495594024658203 4.29556465148925781 13.6903953552246094 148 76 56
2.25205230712890625 -1.35430991649627686 17.6188507080078125 173 47 26
-6.54769039154052734 8.53238487243652344 38.7683525085449219 0 0 0
-3.79132628440856934 5.3340764045715332 16.9398002624511719 142 48 40
5.80205297470092773 2.79393386840820312 14.3836383819580078 206 130 114
-2.73154497146606445 2.15286707878112793 17.3950710296630859 177 76 64
-4.89988899230957031 -11.0371103286743164 14.5966196060180664 0 0 0
-8.45560264587402344 1.46422886848449707 12.7926530838012695 0 0 0
6.60125827789306641 -1.38744509220123291 17.9608364105224609 80 17 7
6.20852231979370117 -1.93544089794158936 15.7386541366577148 133 56 37
1.84703183174133301 -10.1443328857421875 21.9490947723388672 53 0 0
3.8400580883026123 4.36092758178710938 17.7074451446533203 65 3 0
-6.1758570671081543 -0.242232680320739746 13.1619472503662109 103 55 45
17.6509532928466797 -52.200958251953125 81.2222137451171875 0 0 0
-12.5586423873901367 -7.42795801162719727 20.5228977203369141 0 0 0
2.28095221519470215 -7.3445734977722168 19.7338771820068359 63 6 0
-2.64517927169799805 4.05614709854125977 16.1328487396240234 142 76 89
0.161243915557861328 -5.79712104797363281 20.2667484283447266 0 0 0
-2.04404091835021973 5.78840398788452148 17.26019287109375 154 63 51
-0.537253141403198242 2.12952256202697754 18.0156230926513672 207 107 101
0.503256261348724365 2.78815031051635742 16.8392562866210938 179 75 62
-0.837426960468292236 2.32295846939086914 17.1279010772705078 246 189 196
-0.476785540580749512 2.5823814868927002 17.3595695495605469 217 119 102
-4.81286430358886719 5.13421058654785156 16.6334362030029297 163 70 62
-1.54485011100769043 3.08474302291870117 14.187098503112793 149 70 92
-1.95148372650146484 5.37457275390625 16.8734855651855469 162 70 59
-0.367517411708831787 5.90053510665893555 17.4161853790283203 175 88 71
-2.23195409774780273 3.99153614044189453 16.4851608276367188 187 117 141
-6.98388862609863281 -0.129501327872276306 15.0391740798950195 128 82 68
21.0389995574951172 -5.15223503112792969 17.4555473327636719 0 0 0
4.41294956207275391 3.80171418190002441 19.8912105560302734 148 66 43
3.89967870712280273 2.33758234977722168 10.9884614944458008 161 81 58
-3.93108797073364258 5.10957193374633789 16.4895839691162109 164 72 61
4.99364280700683594 -3.43566179275512695 21.1366596221923828 59 9 1
4.78478384017944336 -12.5800504684448242 20.0705318450927734 0 0 0
1.96667277812957764 0.800932049751281738 17.4443531036376953 209 100 78
-2.8852994441986084 5.03737497329711914 16.6793327331542969 182 90 75
2.70644593238830566 8.74279403686523438 21.1550636291503906 0 0 0
-0.465459436178207397 0.526282787322998047 19.6378250122070312 222 133 117
-4.26520490646362305 8.07659816741943359 17.875732421875 107 37 29
-1.08642232418060303 2.0113990306854248 15.2405681610107422 0 0 0
9.20745849609375 4.25909948348999023 9.91919803619384766 0 0 0
-7.42604589462280273 2.68306946754455566 9.71025753021240234 115 75 67
-0.966944992542266846 1.8043370246887207 16.5091609954833984 240 162 150
1.99984622001647949 2.39345455169677734 17.4554042816162109 166 56 39
3.79744124412536621 2.31492376327514648 11.0319623947143555 140 68 47
12.0390443801879883 9.37350749969482422 40.444091796875 66 13 1
-1.40049231052398682 2.97501444816589355 16.7967872619628906 191 128 145
5.28392267227172852 4.38623523712158203 10.3534326553344727 195 106 86
1.67514872550964355 -10.2332944869995117 21.8793601989746094 60 8 1
-2.40261101722717285 -3.55998516082763672 12.0633783340454102 164 107 90
-8.95900154113769531 2.65229988098144531 13.7395248413085938 146 103 94
1.85614442825317383 -2.7224876880645752 17.4154586791992188 142 34 9
-2.14247322082519531 3.49892449378967285 15.3837213516235352 185 142 172
3.05740523338317871 -8.29144287109375 23.548553466796875 94 43 25
0.619243025779724121 -12.5652093887329102 21.9724712371826172 0 0 0
-1.64539003372192383 4.59118890762329102 16.6131248474121094 197 97 85
-8.07911396026611328 2.65676450729370117 11.6064519882202148 134 92 80
-4.65532064437866211 4.52249240875244141 16.7905197143554688 148 60 50
3.960479736328125 6.11674833297729492 21.3232479095458984 111 42 27
-1.39418578147888184 3.11047005653381348 14.4834432601928711 184 89 86
0.665081262588500977 -12.7085046768188477 22.3556976318359375 47 20 15
1.44414615631103516 -11.8535146713256836 22.1634769439697266 59 10 5
-2.11274003982543945 3.46334266662597656 15.2910451889038086 141 71 133
6.12923955917358398 0.330294400453567505 15.8056859970092773 144 66 43
1.74869036674499512 -24.8690414428710938 40.3194732666015625 0 0 0
7.72107362747192383 -6.63179254531860352 8.73890876770019531 0 0 0
1.01959168910980225 5.44087743759155273 9.20680904388427734 106 61 55
5.55340766906738281 2.41788530349731445 13.2496185302734375 176 93 79
-1.71242821216583252 3.49812793731689453 16.4917621612548828 0 0 0
3.82227897644042969 -5.79993152618408203 21.289642333984375 95 37 24
2.5883030891418457 2.57398247718811035 11.4712162017822266 61 6 0
2.0645143985748291 0.0203216169029474258 16.9011859893798828 0 0 0
1.2071831226348877 1.02804219722747803 17.8601093292236328 211 97 73
0.316567212343215942 1.80251908302307129 15.167454719543457 187 81 68
0.884535014629364014 1.30501306056976318 14.4171533584594727 0 0 0
-2.37170004844665527 3.02782058715820312 15.267949104309082 174 74 76
2.51281309127807617 -8.72314453125 21.5362300872802734 58 7 3
3.12479305267333984 5.88908052444458008 19.5494670867919922 144 66 44
3.92519569396972656 -1.15113484859466553 10.062190055847168 84 18 4
-2.52533364295959473 3.99412155151367188 18.0526599884033203 194 127 118
2.09199047088623047 0.0480585917830467224 17.7160301208496094 171 56 38
5.05665063858032227 0.879639267921447754 13.4563274383544922 139 65 48
-0.850723028182983398 3.21955704689025879 16.7899074554443359 207 107 92
2.1968235969543457 4.55173540115356445 9.63102054595947266 168 97 78
-5.81723880767822266 -0.371732503175735474 13.0675668716430664 115 67 57
6.84764003753662109 4.94128036499023438 22.1489696502685547 67 15 2
3.20161223411560059 -7.13787269592285156 22.1520786285400391 0 0 0
-0.375939667224884033 -0.938783645629882812 0.662203669548034668 145 93 87
1.70226120948791504 -9.73165988922119141 21.5625457763671875 87 31 19
0.290405064821243286 5.79776525497436523 15.3271827697753906 170 82 70
7.72107362747192383 -6.63179254531860352 8.73890876770019531 0 0 0
-1.56927347183227539 4.47931909561157227 16.6830234527587891 145 48 52
-1.4583439826965332 7.17014312744140625 17.5954418182373047 182 93 77
5.01675224304199219 3.10115790367126465 21.8678112030029297 0 0 0
-0.718234837055206299 1.66757416725158691 16.2526035308837891 173 71 71
-2.45601558685302734 3.14689421653747559 16.4927558898925781 198 81 71
-0.421756058931350708 9.81735515594482422 18.4152297973632812 84 28 13
4.52504873275756836 2.66497182846069336 13.6229095458984375 106 42 32
-1.71764993667602539 4.63221216201782227 16.9665203094482422 186 84 82
-0.759896814823150635 2.27452850341796875 17.1226100921630859 174 88 112
4.60980558395385742 -5.26366472244262695 22.2253341674804688 80 13 5
-0.99884188175201416 2.70245885848999023 16.3431282043457031 158 79 99
0.555383265018463135 1.63421976566314697 15.6515750885009766 231 143 133
1.31566512584686279 6.64166975021362305 18.1325950622558594 131 46 31
0.355602264404296875 1.8383784294128418 16.8844776153564453 212 166 182
-0.870147824287414551 2.66204333305358887 17.4813365936279297 254 232 232
3.21291327476501465 8.15180301666259766 20.9725360870361328 74 25 18
5.96149778366088867 -4.28271818161010742 25.7136039733886719 72 13 2
3.09168839454650879 -0.89757925271987915 18.2637367248535156 208 94 75
-1.06398415565490723 2.55707621574401855 16.7971115112304688 208 166 160
-10.5064783096313477 8.89470767974853516 21.09039306640625 127 57 45
-6.88770389556884766 1.43332898616790771 11.4875173568725586 0 0 0
-2.98167824745178223 3.43658947944641113 16.9019451141357422 236 147 133
4.57184267044067383 1.35695922374725342 18.6251106262207031 160 73 49
2.89673185348510742 -11.5779447555541992 27.8661270141601562 64 3 0
-0.32434922456741333 2.10747694969177246 17.9575347900390625 205 150 173
3.77842926979064941 3.81672763824462891 12.769317626953125 84 25 9
-1.01832234859466553 2.04281949996948242 15.8877058029174805 227 149 145
0.273191094398498535 1.17125844955444336 16.4413032531738281 171 79 66
-0.675751268863677979 2.19656467437744141 17.1275997161865234 176 120 139
-1.25953948497772217 2.92592930793762207 16.3132858276367188 249 165 190
-5.08138751983642578 -0.891700446605682373 11.6809873580932617 145 91 83
7.14046478271484375 6.87743186950683594 32.6680946350097656 131 55 39
3.01252055168151855 5.39469766616821289 12.2385063171386719 179 102 82
6.1983952522277832 3.7855527400970459 25.9187889099121094 134 52 34
1.78533291816711426 -9.07532882690429688 21.3129444122314453 88 27 12
-1.97473275661468506 4.21500062942504883 16.3389987945556641 230 133 117
-0.432272672653198242 1.60577142238616943 16.8384475708007812 215 115 100
-2.94444727897644043 3.3027806282043457 16.7367534637451172 193 93 81
1.05801379680633545 -0.764907598495483398 15.4303560256958008 0 0 0
4.63008022308349609 5.46305418014526367 11.1131448745727539 215 166 162
-0.251537948846817017 0.825261771678924561 17.0990104675292969 215 101 81
-1.09177327156066895 3.3885495662689209 16.4966049194335938 188 110 110
4.10558605194091797 1.89656257629394531 8.60614871978759766 216 154 158
-6.00920629501342773 -0.477422803640365601 13.3476009368896484 151 104 91
0.879242599010467529 -16.5382328033447266 25.1655502319335938 77 34 27
-0.0900319889187812805 2.01618671417236328 17.5636672973632812 244 242 243
2.74873781204223633 -15.9565601348876953 24.1491165161132812 79 30 15
2.09399175643920898 -3.83314704895019531 18.1544399261474609 0 0 0
5.29810190200805664 -1.98038232326507568 21.8487567901611328 103 33 21
-1.76097071170806885 3.80561137199401855 16.9617958068847656 195 88 80
-2.12649321556091309 3.3732295036315918 16.0341987609863281 178 95 109
-1.23015856742858887 3.9017481803894043 17.2374439239501953 227 131 117
2.00225305557250977 -9.15233993530273438 20.8537864685058594 50 5 0
4.05093574523925781 3.7621467113494873 18.0493488311767578 0 0 0
-1.01517951488494873 2.81149697303771973 16.3603782653808594 252 231 240
-1.01985025405883789 2.82519435882568359 16.4231548309326172 252 231 240
-3.07959127426147461 3.45030832290649414 16.7856273651123047 241 147 128
-1.38916969299316406 7.45790338516235352 18.0478916168212891 173 85 69
-2.7314445972442627 3.68892812728881836 16.1793174743652344 189 102 93
4.64103794097900391 2.38757085800170898 19.6142845153808594 111 39 20
1.79352486133575439 -4.12662172317504883 16.8144512176513672 153 47 30
-1.31890082359313965 2.14534115791320801 16.8703174591064453 224 126 110
-3.26499533653259277 4.30355453491210938 16.938720703125 159 56 45
1.94246399402618408 1.21744346618652344 17.8117351531982422 198 81 59
-0.877799868583679199 3.25692439079284668 16.6171779632568359 129 66 57
3.50728440284729004 -8.00058746337890625 22.8183059692382812 75 17 6
3.94259166717529297 3.2863306999206543 17.5545864105224609 142 62 39
3.51041579246520996 0.162789002060890198 8.25853252410888672 111 44 28
2.37041997909545898 12.8279056549072266 22.8095760345458984 129 88 70
-2.66788816452026367 -2.97630667686462402 12.5507326126098633 32 1 6
-7.09482336044311523 0.643630445003509521 12.4817295074462891 0 0 0
-1.64189016819000244 3.62380123138427734 16.8672027587890625 218 120 107
1.47289454936981201 -1.37968957424163818 4.4963221549987793 138 57 39
2.32953500747680664 -4.19071674346923828 19.2708587646484375 191 93 68
-4.23908042907714844 -2.11890697479248047 13.7683467864990234 0 0 0
3.28961777687072754 -1.04463648796081543 18.4416370391845703 173 59 45
2.0123894214630127 -0.879450321197509766 17.7040424346923828 220 95 73
-4.66177463531494141 -1.59283649921417236 9.77158164978027344 178 139 134
-0.842556774616241455 2.3837282657623291 15.6686716079711914 232 175 166
7.51868438720703125 14.2490091323852539 25.3193302154541016 0 0 0
1.42227435111999512 -7.75182580947875977 16.6772804260253906 138 65 46
-1.53185844421386719 4.67369937896728516 16.7401580810546875 182 80 65
1.0358736515045166 5.08923959732055664 17.3932266235351562 144 55 41
-0.180391028523445129 2.71460604667663574 19.3241539001464844 189 78 64
-0.82480931282043457 2.37844038009643555 17.0676975250244141 228 153 149
3.59303689002990723 -7.27943944931030273 22.4227352142333984 51 5 0
-2.9680626392364502 2.44933319091796875 18.35357666015625 215 127 105
-2.15481209754943848 3.41081619262695312 16.1249504089355469 141 63 54
9.07860851287841797 15.8441200256347656 28.3344821929931641 223 191 197
4.16370248794555664 -13.6651926040649414 20.1676597595214844 0 0 0
-5.8236079216003418 7.59071636199951172 18.6990642547607422 0 0 0
-0.981136977672576904 2.96647047996520996 10.5178403854370117 0 0 0
3.0011134147644043 -4.20010662078857422 14.4579849243164062 0 0 0
-2.90742731094360352 4.32436466217041016 17.1907367706298828 207 108 94
5.42121267318725586 -2.05614423751831055 22.3599929809570312 0 0 0
4.54090452194213867 1.79344606399536133 10.7813987731933594 235 170 168
0.393970221281051636 -14.2081756591796875 23.5254001617431641 101 47 32
-0.616164207458496094 5.48917770385742188 16.9034214019775391 200 104 88
-1.56589293479919434 2.90211701393127441 16.869720458984375 218 139 134
1.0850825309753418 -14.1933689117431641 24.0229034423828125 0 0 0
-3.53138470649719238 -3.39441061019897461 12.67474365234375 173 113 103
1.97401583194732666 -2.39356517791748047 18.4690628051757812 177 34 20
-9.91321086883544922 5.41699600219726562 13.1652021408081055 139 86 72
1.66720926761627197 3.06220459938049316 17.49755859375 225 124 105
-3.07449936866760254 3.71339082717895508 17.3805732727050781 252 174 159
-2.05725622177124023 4.08600950241088867 16.9176959991455078 222 130 117
-0.19755709171295166 1.87180221080780029 15.5336027145385742 148 50 34
-0.451884567737579346 5.27827978134155273 17.4159965515136719 197 107 96
-9.20528507232666016 3.30799007415771484 12.2306194305419922 114 75 68
2.56706762313842773 2.70862150192260742 17.4990749359130859 220 118 97
-2.34727931022644043 -3.76746654510498047 12.7934780120849609 0 0 0
4.1886444091796875 2.83046722412109375 17.2552433013916016 62 3 0
4.55732631683349609 2.30614209175109863 9.53127193450927734 218 149 148
-2.90332603454589844 3.62983417510986328 16.7590827941894531 186 102 91
-0.654197394847869873 1.84217727184295654 16.7380580902099609 163 74 58
4.10510110855102539 -5.12899971008300781 20.8916015625 140 55 34
1.76779377460479736 -2.64693474769592285 18.2175121307373047 179 46 31
0.691256403923034668 -12.5275688171386719 22.5548896789550781 81 41 31
2.22182106971740723 -3.92413592338562012 17.6576957702636719 192 94 65
1.00876688957214355 -11.2110147476196289 22.3013439178466797 103 37 11
3.22239375114440918 3.69704008102416992 18.2389202117919922 181 90 66
1.26005816459655762 5.11323451995849609 17.6045894622802734 119 42 28
0.244623437523841858 2.37416243553161621 18.0568618774414062 230 143 133
7.95918083190917969 13.7778654098510742 35.9408073425292969 71 24 16
-3.66559696197509766 -2.53721022605895996 13.2212438583374023 117 76 74
3.8133704662322998 5.26358938217163086 13.6967372894287109 203 119 95
3.09543967247009277 -8.09086132049560547 22.2953395843505859 77 15 1
16.5374279022216797 -8.23152923583984375 19.4982109069824219 147 69 47
-0.817666053771972656 2.5292060375213623 16.1214218139648438 242 170 168
3.96059656143188477 7.18610048294067383 22.437713623046875 109 40 28
2.47208404541015625 -1.56868588924407959 17.3746738433837891 215 89 66
5.38591575622558594 -6.817169189453125 11.6679697036743164 67 16 12
-1.22643005847930908 -6.48740100860595703 14.0902214050292969 100 38 25
-3.18495512008666992 3.78756833076477051 17.9937324523925781 202 107 94
-9.60896205902099609 3.69961142539978027 13.5580511093139648 82 41 35
2.04169273376464844 0.738311707973480225 17.6059322357177734 201 90 70
3.98326611518859863 1.17067205905914307 16.6150283813476562 0 0 0
-0.94345545768737793 3.09438419342041016 16.5880527496337891 194 92 84
17.0949172973632812 -25.5622367858886719 39.3918914794921875 77 26 14
-1.50477731227874756 4.2067265510559082 16.4959297180175781 197 114 98
4.53291940689086914 -5.65397787094116211 22.5933723449707031 74 16 4
0.11526884138584137 1.00686252117156982 16.6185321807861328 205 162 153
-1.63795685768127441 4.37139606475830078 16.9865360260009766 241 228 224
-1.9957047700881958 4.25181245803833008 16.1327762603759766 183 87 73
-3.16385436058044434 -3.40811657905578613 11.6529045104980469 125 65 67
-1.9914858341217041 -14.9814319610595703 22.9339523315429688 0 0 0
3.17982983589172363 -2.98652195930480957 18.8533153533935547 164 46 24
1.45891165733337402 -14.6395759582519531 22.0305976867675781 0 0 0
-3.02919650077819824 3.59538817405700684 16.6216316223144531 207 110 91
-0.0130306612700223923 -2.04163289070129395 0.345349371433258057 0 0 0
-0.589982032775878906 -6.19045019149780273 2.54159903526306152 0 0 0
3.34907865524291992 2.8663630485534668 14.0681886672973633 0 0 0
-8.59985923767089844 0.806347787380218506 15.831477165222168 95 46 41
-4.69815158843994141 3.7582094669342041 16.365478515625 150 61 45
3.73635268211364746 4.6538996696472168 13.3644580841064453 132 66 44
-2.51728534698486328 4.12035512924194336 16.197174072265625 162 68 58
1.7557985782623291 0.405045062303543091 17.2818870544433594 193 80 66
2.31191325187683105 -0.143434345722198486 1.76347565650939941 181 133 122
-0.111026860773563385 1.69310390949249268 20.5247802734375 0 0 0
-0.868360340595245361 6.05350351333618164 17.0497207641601562 151 64 49
3.98318719863891602 -21.8640518188476562 33.0771217346191406 68 32 24
-2.87283015251159668 -2.84789490699768066 12.1372909545898438 72 24 24
0.688281536102294922 5.47407388687133789 6.54414701461791992 196 132 122
5.27145147323608398 -1.39332175254821777 20.4604701995849609 54 1 0
1.95095443725585938 0.958444058895111084 17.3223342895507812 203 90 69
0.56851881742477417 -14.4766950607299805 21.8939647674560547 52 21 19
1.85877418518066406 2.89533543586730957 7.46973323822021484 71 28 22
-2.49548006057739258 5.42905902862548828 16.8619308471679688 151 57 42
2.05093574523925781 2.0742795467376709 6.80643892288208008 76 18 4
-0.563143372535705566 0.629874825477600098 17.4084339141845703 211 92 70
-0.429539948701858521 0.676279962062835693 20.2886943817138672 0 0 0
0.186451345682144165 6.06156492233276367 8.43716812133789062 123 71 56
-6.6854248046875 0.0715578943490982056 20.8333168029785156 91 33 22
1.43124520778656006 -0.120735041797161102 16.2765064239501953 0 0 0
-1.54282915592193604 2.28414583206176758 16.3148918151855469 198 84 73
1.21611964702606201 -20.4001140594482422 33.7084465026855469 0 0 0
-0.846317589282989502 2.12260913848876953 16.1153068542480469 245 195 194
3.03670406341552734 -7.65480136871337891 22.2009239196777344 120 48 31
4.00820398330688477 -0.752225935459136963 10.7608823776245117 94 28 16
1.4840160608291626 0.48404344916343689 17.57257080078125 194 64 50
5.71985769271850586 0.303888112306594849 13.5899257659912109 224 142 123
-1.11476767063140869 2.31479930877685547 15.9462375640869141 194 110 110
4.76178693771362305 -0.16284295916557312 19.1356792449951172 104 39 24
0.687798380851745605 1.91691112518310547 17.5166950225830078 227 115 101
1.92391097545623779 -2.83395814895629883 17.9322185516357422 0 0 0
-1.75389361381530762 2.96566939353942871 17.3772048950195312 193 97 87
2.62094402313232422 -8.0083770751953125 21.3831005096435547 128 55 35
7.22037029266357422 3.87860298156738281 16.6813907623291016 213 151 149
1.49315440654754639 -8.34910106658935547 18.3164939880371094 0 0 0
1.26869499683380127 -0.557234704494476318 3.22472095489501953 213 126 99
4.97453022003173828 -3.76796054840087891 22.5539321899414062 0 0 0
-8.09052658081054688 3.5811913013458252 11.0335474014282227 112 67 65
1.85662591457366943 0.736494660377502441 17.2457408905029297 218 108 84
2.23397326469421387 2.54088497161865234 17.7680149078369141 146 55 41
-3.92647957801818848 -1.98762226104736328 16.2405033111572266 42 11 8
2.65645623207092285 6.81942367553710938 17.5377044677734375 71 22 17
-6.26162385940551758 -0.33832898736000061 14.8506660461425781 51 16 13
2.0161895751953125 -9.61241245269775391 21.5716724395751953 41 1 0
18.9079055786132812 -12.9682807922363281 24.9479408264160156 124 53 31
2.9807584285736084 5.05951786041259766 12.5357904434204102 53 7 0
18.9079055786132812 -12.9682807922363281 24.9479408264160156 124 53 31
-2.99441337585449219 2.65615415573120117 16.690338134765625 201 91 74
-7.05411815643310547 0.111459001898765564 15.278529167175293 50 10 8
0.843571126461029053 -14.2320394515991211 25.9302291870117188 114 55 37
3.37375283241271973 -8.30949878692626953 24.4278354644775391 136 59 40
4.06056785583496094 4.12521791458129883 9.17155075073242188 184 116 107
-0.586888611316680908 2.80592131614685059 16.3758354187011719 231 135 120
1.52777624130249023 4.54264450073242188 16.8099498748779297 184 80 67
1.10883450508117676 -16.9121856689453125 31.9014301300048828 112 51 41
1.30502736568450928 -10.1652441024780273 21.3626918792724609 97 23 4
-0.605001986026763916 2.91963863372802734 16.5512142181396484 200 109 91
-2.92327284812927246 2.17144227027893066 16.7056636810302734 178 70 50
-2.03979730606079102 7.39747190475463867 16.7451438903808594 120 41 26
-0.158046990633010864 1.26103460788726807 15.9996585845947266 193 106 114
-3.0484926700592041 2.35881805419921875 16.28607177734375 184 74 59
-3.14118552207946777 3.43622922897338867 17.1092376708984375 184 91 82
-0.242381393909454346 3.32298636436462402 16.9415817260742188 182 69 57
1.48298895359039307 -10.2804079055786133 21.6200332641601562 101 44 30
0.526668965816497803 8.11540699005126953 17.9582576751708984 102 46 35
-1.63393020629882812 2.82641243934631348 15.0796880722045898 208 101 88
5.06258344650268555 5.71712493896484375 12.6484050750732422 224 198 199
-0.82153087854385376 1.8699725866317749 17.1643886566162109 105 19 11
5.25811004638671875 2.32216548919677734 15.2914228439331055 97 33 21
-0.938783764839172363 0.434647798538208008 17.8376560211181641 202 88 77
2.97864222526550293 -8.46338939666748047 23.4946422576904297 136 55 32
5.19657564163208008 1.99031960964202881 11.7552757263183594 208 132 133
-9.27998161315917969 1.55621457099914551 13.5951967239379883 66 46 44
4.3210606575012207 -0.472871184349060059 11.8441591262817383 117 49 38
-2.5829319953918457 3.65608096122741699 15.9026222229003906 217 120 111
0.917494535446166992 5.55413484573364258 17.1531562805175781 170 81 67
-2.26780581474304199 9.69729042053222656 10.6000986099243164 134 82 61
1.828369140625 -14.1423873901367188 27.2062225341796875 88 38 29
-1.59721708297729492 -0.0745610743761062622 1.39877808094024658 143 107 109
-0.751936495304107666 2.63323426246643066 16.2313709259033203 196 96 94
3.00546479225158691 -10.9001560211181641 25.3111629486083984 0 0 0
-1.87763702869415283 -4.75044727325439453 13.5835886001586914 0 0 0
2.49617481231689453 -1.82159209251403809 8.68517875671386719 81 17 7
0.162128731608390808 2.34127902984619141 17.8001937866210938 245 146 141
3.02318072319030762 -15.1178836822509766 22.6515045166015625 81 40 30
-0.913002967834472656 6.66095542907714844 16.9960060119628906 149 55 45
-1.14793586730957031 1.89817345142364502 16.5343761444091797 128 46 37
-9.59584140777587891 3.322052001953125 14.6924591064453125 133 83 73
3.06103968620300293 8.83319473266601562 21.5970687866210938 74 25 20
-1.9540865421295166 3.86124396324157715 16.5652980804443359 219 130 120
6.94130516052246094 4.83967685699462891 29.558624267578125 93 20 2
2.80718159675598145 0.26616358757019043 18.7230358123779297 196 85 66
-1.05209708213806152 2.51881194114685059 16.6268024444580078 211 166 154
-0.592621386051177979 2.13588070869445801 16.0309734344482422 174 93 97
-1.51034951210021973 2.61265707015991211 14.9490203857421875 207 99 87
15.9039201736450195 -44.4098281860351562 69.3283767700195312 104 46 32
1.43027091026306152 -11.7103385925292969 23.1625518798828125 47 0 0
1.99503409862518311 -4.0766453742980957 19.6028652191162109 190 90 66
2.18597769737243652 -1.68353056907653809 17.6953983306884766 187 42 23
-2.03557324409484863 3.95549845695495605 15.7344827651977539 223 132 127
-1.7320629358291626 -4.10045671463012695 11.1698541641235352 0 0 0
-2.93209385871887207 3.90868091583251953 16.9563846588134766 229 136 127
1.08995389938354492 -11.4422588348388672 22.1442222595214844 88 41 35
-1.88041377067565918 3.7653954029083252 16.6881313323974609 207 106 96
4.21602773666381836 -3.67608070373535156 18.3840751647949219 72 12 4
-1.47693812847137451 2.69278097152709961 16.4991378784179688 206 122 129
0.375323295593261719 1.59937202930450439 17.9687652587890625 241 244 201
-1.51450455188751221 3.22529315948486328 16.7776813507080078 201 100 95
0.220267057418823242 1.13394296169281006 17.0247344970703125 223 193 184
-1.30781698226928711 2.86014652252197266 16.7722930908203125 235 219 168
-1.76858508586883545 0.178172379732131958 5.57867431640625 130 81 76
-2.86398196220397949 2.13162922859191895 16.5035572052001953 187 75 55
1.4026181697845459 1.15686464309692383 17.4728889465332031 163 43 27
-0.580597519874572754 5.75964927673339844 17.2829933166503906 158 64 47
2.26122808456420898 -4.37356185913085938 19.0864315032958984 0 0 0
1.82292282581329346 3.25045061111450195 8.50320720672607422 47 14 9
-2.01242351531982422 8.57563114166259766 17.0807590484619141 108 40 21
27.8620986938476562 2.0287315845489502 25.7570266723632812 0 0 0
1.96860229969024658 -13.138270378112793 26.5474872589111328 83 31 20
0.963975965976715088 -12.4559526443481445 20.9174079895019531 56 29 29
-2.44956851005554199 3.47175908088684082 18.1092071533203125 208 101 85
-0.350317418575286865 0.624889910221099854 15.8208742141723633 205 87 72
0.527810275554656982 1.90912008285522461 16.3087196350097656 210 114 115
-1.01528942584991455 2.28614974021911621 17.3524093627929688 152 100 104
2.5256500244140625 -8.97758960723876953 22.9207210540771484 0 0 0
-7.77927494049072266 4.82414579391479492 19.0528945922851562 121 50 35
6.16940402984619141 -4.08180618286132812 26.1973628997802734 79 18 13
-0.987171828746795654 3.21104764938354492 16.4706077575683594 197 105 90
5.08306455612182617 -0.25934600830078125 13.6680498123168945 103 31 17
-14.0552148818969727 3.45968532562255859 19.2830696105957031 0 0 0
-3.02680158615112305 3.55554461479187012 16.8286781311035156 215 159 126
-2.57467389106750488 2.96074008941650391 16.7234153747558594 199 81 67
1.10321104526519775 -9.75407981872558594 21.24053955078125 99 26 7
-0.0871419310569763184 9.19544792175292969 13.098963737487793 113 63 50
1.77147090435028076 0.100461497902870178 17.5384445190429688 157 41 23
0.968313038349151611 -12.2259016036987305 22.6558513641357422 49 3 0
-1.03943550586700439 2.96443676948547363 15.9286165237426758 220 122 116
1.83554184436798096 -0.790197193622589111 6.62655782699584961 73 14 7
-3.04860258102416992 2.50066828727722168 18.7368888854980469 215 127 105
0.855875611305236816 1.3675086498260498 16.8732700347900391 205 152 155
-0.816431999206542969 1.80404078960418701 16.3705501556396484 214 179 173
0.743051767349243164 -11.9527120590209961 21.6769008636474609 103 53 38
5.12687158584594727 -7.21060943603515625 10.6333951950073242 0 0 0
1.46022188663482666 0.111061118543148041 17.2505359649658203 168 74 59
0.565397500991821289 1.71288394927978516 19.5975532531738281 222 226 225
4.83980560302734375 7.16159152984619141 24.4998550415039062 49 2 0
11.1839380264282227 -30.3708629608154297 48.2294578552246094 109 52 41
6.53219032287597656 -8.3327789306640625 13.407832145690918 67 18 4
-0.949373483657836914 2.96214103698730469 15.2808399200439453 220 136 125
1.78658545017242432 -10.3701820373535156 22.1263904571533203 41 2 0
3.26540994644165039 -7.16702747344970703 21.2382278442382812 76 12 2
9.06525802612304688 8.56338024139404297 63.1905364990234375 144 68 54
-2.8531644344329834 7.4831843376159668 16.1131801605224609 109 41 28
-0.929333865642547607 -6.82459783554077148 14.1973762512207031 79 19 8
2.50365447998046875 -12.8021488189697266 27.5680255889892578 89 35 23
-2.91027998924255371 3.41189432144165039 16.3747882843017578 202 140 111
-0.530307412147521973 2.04030942916870117 17.7958259582519531 170 83 63
-2.712890625 3.60724520683288574 16.8079719543457031 195 118 112
1.3765338659286499 0.968040585517883301 6.12330818176269531 150 70 47
4.02983379364013672 11.5385808944702148 28.1979236602783203 84 35 28
0.128641486167907715 2.08132052421569824 16.1741714477539062 143 48 36
1.08410680294036865 0.103060334920883179 17.2695293426513672 199 86 72
1.75200879573822021 0.288421988487243652 17.7778701782226562 189 57 45
-1.04711103439331055 2.58562636375427246 16.6940822601318359 213 129 109
1.4521331787109375 -1.98713350296020508 17.3809089660644531 135 42 29
0.0748976916074752808 0.943694174289703369 16.1977558135986328 240 179 176
0.882611215114593506 2.07855010032653809 15.0331716537475586 213 112 100
3.46436691284179688 3.92794322967529297 8.54408168792724609 213 164 159
-1.77351117134094238 5.64460897445678711 16.3665714263916016 172 90 78
-1.22544181346893311 2.1779778003692627 16.0728683471679688 178 99 85
4.52708625793457031 2.47144937515258789 13.4785079956054688 71 9 0
0.785026073455810547 1.31975841522216797 16.9053573608398438 191 88 68
4.98097562789916992 1.69381475448608398 14.1657905578613281 77 17 6
-7.56062126159667969 0.665055572986602783 9.93435001373291016 196 157 154
-2.57359719276428223 3.46380853652954102 15.8135643005371094 149 65 64
-1.41208410263061523 9.29190540313720703 18.1417827606201172 93 27 13
-2.1524512767791748 4.34305763244628906 16.2052803039550781 163 75 65
-0.986651599407196045 2.08700656890869141 17.2405281066894531 254 225 198
3.77548646926879883 5.70449542999267578 21.4802627563476562 0 0 0
-5.01437044143676758 5.92579936981201172 17.5513229370117188 149 81 114
7.07359457015991211 -26.8388671875 41.0742988586425781 87 44 37
5.38591575622558594 -6.817169189453125 11.6679697036743164 67 16 12
0.785126805305480957 -1.00738286972045898 17.6214942932128906 184 89 66
13.0563755035400391 2.35968208312988281 37.6711311340332031 81 17 6
-0.424741923809051514 1.98402583599090576 -0.176125809550285339 125 86 81
-1.86706018447875977 -5.92039060592651367 14.6442317962646484 46 3 0
2.32403993606567383 -7.39455080032348633 11.5199193954467773 0 0 0
-1.89678382873535156 6.77101516723632812 16.9596233367919922 134 47 33
0.348985850811004639 2.10460305213928223 17.3891887664794922 242 156 136
-0.0346910767257213593 13.3816995620727539 19.0839347839355469 41 9 10
-0.919066846370697021 3.70584416389465332 15.3980836868286133 157 78 81
-6.11958932876586914 0.423755288124084473 9.68443393707275391 165 121 108
-7.43841028213500977 1.65529274940490723 13.2293176651000977 0 0 0
-5.21705770492553711 6.70896244049072266 16.6806163787841797 124 50 42
-0.726633608341217041 1.9589385986328125 17.8311119079589844 250 179 169
0.825408875942230225 -11.7553586959838867 20.4114189147949219 30 0 0
-7.01843595504760742 -0.0648200511932373047 14.2418241500854492 111 58 52
-4.85391378402709961 5.18808460235595703 16.8411636352539062 135 55 42
-2.0135643482208252 4.49795055389404297 16.6805896759033203 168 86 88
1.00063300132751465 -13.1309051513671875 23.7818050384521484 32 0 0
0.67359459400177002 -15.8281373977661133 27.4618797302246094 86 36 27
-2.81555557250976562 2.61862587928771973 18.7013778686523438 160 64 45
-12.1284198760986328 3.32793712615966797 28.0386257171630859 81 32 27
-3.68151211738586426 2.63651752471923828 19.5728225708007812 191 112 97
4.99233007431030273 -3.0841825008392334 21.7243194580078125 108 42 30
4.72771739959716797 -1.67658495903015137 19.9553489685058594 103 20 5
-38.7750091552734375 -2.71814751625061035 60.1806373596191406 149 105 102
-1.48115992546081543 -1.99810361862182617 7.99690055847167969 100 51 39
4.59449863433837891 3.32371091842651367 14.3259258270263672 77 19 5
-4.0958251953125 -2.48702526092529297 13.7796030044555664 150 99 85
2.06408905982971191 -1.43376243114471436 17.995819091796875 144 30 12
6.00791120529174805 -0.60611194372177124 14.8216123580932617 103 31 18
6.87188911437988281 0.421184539794921875 29.4461193084716797 141 60 39
-0.966637074947357178 1.53181970119476318 16.0211372375488281 168 71 55
4.27717065811157227 3.30074739456176758 19.8490505218505859 145 67 44
-1.73105812072753906 -5.93303728103637695 15.5326700210571289 64 11 3
-11.9994087219238281 1.06799054145812988 23.1480426788330078 111 65 52
-0.185207217931747437 -5.4172511100769043 20.9538688659667969 103 30 13
-1.42959654331207275 3.37168669700622559 15.833765983581543 125 50 72
-3.36780524253845215 5.15490007400512695 17.2982387542724609 149 64 59
-0.895846545696258545 0.130243659019470215 1.42452538013458252 143 91 80
0.995047032833099365 5.1265106201171875 8.18365192413330078 0 0 0
-4.83220767974853516 -1.61933994293212891 6.56037759780883789 153 118 122
8.95166110992431641 5.53339862823486328 21.0276317596435547 226 184 185
4.85996198654174805 1.19088053703308105 11.6370792388916016 214 132 117
-2.79361343383789062 -3.16583609580993652 10.7021884918212891 146 72 73
-5.51921939849853516 -0.42369920015335083 13.7601184844970703 0 0 0
-1.19702613353729248 5.29377079010009766 18.2332000732421875 217 116 106
-6.85830402374267578 -0.0402782000601291656 14.6031370162963867 175 126 113
-2.89574408531188965 3.53502750396728516 16.6804981231689453 212 127 111
-1.21038329601287842 0.990725457668304443 17.1649875640869141 210 87 71
4.45439672470092773 0.859503269195556641 11.9274225234985352 0 0 0
-1.62272655963897705 3.5492548942565918 16.0651512145996094 224 203 189
-1.62488436698913574 2.87811493873596191 14.0593061447143555 0 0 0
3.2379910945892334 4.79364442825317383 17.1214580535888672 132 52 30
-2.42181491851806641 7.90089750289916992 17.1453056335449219 145 65 53
-0.247504621744155884 0.708215534687042236 17.6272869110107422 203 86 69
-1.6596224308013916 3.6067812442779541 15.2729988098144531 254 237 235
0.614612162113189697 1.78777885437011719 17.9628829956054688 210 154 183
-0.815219104290008545 3.37584543228149414 16.4574050903320312 202 102 90
-1.74833381175994873 3.6046900749206543 15.7124738693237305 236 191 188
5.24461221694946289 1.40376043319702148 22.3701381683349609 193 95 69
-0.593607485294342041 2.89029955863952637 16.4184150695800781 202 113 95
5.32581138610839844 4.40595722198486328 16.2122669219970703 200 108 82
-13.5974979400634766 -1.12400662899017334 25.3723983764648438 136 89 80
2.79533243179321289 2.39849758148193359 8.93549823760986328 0 0 0
-0.651655852794647217 2.97184157371520996 16.5154991149902344 219 123 108
-2.78758502006530762 3.88955068588256836 17.0349597930908203 205 129 138
6.49058103561401367 -2.21760106086730957 25.1694564819335938 44 6 0
-0.368296682834625244 1.9631723165512085 18.0981216430664062 176 79 79
2.20301961898803711 4.88617038726806641 10.267756462097168 0 0 0
2.56133031845092773 2.29962563514709473 10.9853706359863281 0 0 0
-0.672662973403930664 1.81475710868835449 16.5651226043701172 220 140 105
-1.49964666366577148 2.88415002822875977 16.5946235656738281 172 90 113
-1.61194694042205811 2.77111721038818359 14.3038530349731445 0 0 0
2.46129155158996582 3.89564657211303711 17.4241447448730469 205 109 89
7.03923606872558594 -18.0392932891845703 29.8052291870117188 88 42 29
-0.97504580020904541 1.11916100978851318 16.9511203765869141 216 100 76
4.34386301040649414 -6.93923187255859375 23.3674507141113281 86 27 18
-2.33162999153137207 2.7603600025177002 15.7793731689453125 203 88 70
4.69218873977661133 1.59045171737670898 12.960698127746582 116 49 36
-7.40181446075439453 -2.11516404151916504 16.1288070678710938 154 110 111
-2.58803129196166992 7.76870298385620117 16.7641181945800781 137 70 61
0.323038250207901001 3.51956057548522949 21.5736923217773438 211 114 103
-1.2177051305770874 3.06210422515869141 16.6515903472900391 136 40 48
-5.76784467697143555 -0.861278891563415527 13.1943454742431641 147 100 92
-8.19993114471435547 1.24718236923217773 13.5289621353149414 169 132 121
-2.30828070640563965 3.32773661613464355 16.1477737426757812 194 109 125
0.210223406553268433 3.06820940971374512 19.9901676177978516 247 173 158
-1.7339404821395874 7.19489192962646484 17.0971431732177734 173 83 69
-1.93283629417419434 6.99398994445800781 16.8011436462402344 177 91 76
0.270042896270751953 1.74182236194610596 16.2832756042480469 254 233 236
3.26238203048706055 4.57874584197998047 12.5170841217041016 59 13 8
0.6629599928855896 1.2593001127243042 17.8956031799316406 196 102 102
-0.646015822887420654 2.05132126808166504 16.8719902038574219 255 236 239
0.134621292352676392 1.82273733615875244 16.7324867248535156 200 149 145
0.0941848978400230408 1.91362059116363525 17.4486541748046875 200 149 145
1.61024141311645508 -11.9559221267700195 23.6116065979003906 73 25 15
-0.970723211765289307 1.80058145523071289 16.4989185333251953 234 159 151
-8.46713066101074219 1.79668474197387695 14.8223981857299805 109 65 54
-1.31692123413085938 3.29071140289306641 16.6645717620849609 209 123 110
-0.644661545753479004 1.94484174251556396 16.8464756011962891 213 142 141
4.95493221282958984 0.374513685703277588 11.8019132614135742 151 82 66
-0.685327529907226562 3.60994696617126465 16.8081779479980469 190 79 65
-0.16648295521736145 2.04415655136108398 17.0818290710449219 210 143 153
-1.13338828086853027 3.733917236328125 15.6820125579833984 152 85 76
14.0085372924804688 3.71346449851989746 18.8843994140625 0 0 0
2.98614096641540527 -10.0931119918823242 23.9911098480224609 75 20 9
-2.90940093994140625 2.17423057556152344 16.6606597900390625 181 71 54
-0.934227049350738525 1.99472522735595703 15.7103796005249023 222 141 137
-2.19846272468566895 4.12859201431274414 17.1656646728515625 133 60 69
-0.0275461487472057343 0.303300678730010986 17.0535373687744141 216 116 93
4.11897945404052734 -5.05039739608764648 9.63515949249267578 66 23 18
-2.0429530143737793 -4.60065412521362305 13.0840463638305664 131 77 62
-2.52738761901855469 3.67551279067993164 16.8895549774169922 238 240 239
-6.34517478942871094 -0.257729977369308472 13.6159563064575195 122 77 66
0.151753127574920654 1.81720173358917236 17.2185420989990234 166 78 72
4.33020734786987305 -5.32581043243408203 21.3287410736083984 78 19 11
2.94605541229248047 -3.75669264793395996 14.7245006561279297 0 0 0
0.63392937183380127 -13.8667631149291992 23.2868423461914062 31 0 0
2.51787066459655762 5.1412506103515625 11.4465503692626953 164 104 81
-7.68802022933959961 -0.0173692051321268082 23.3326225280761719 86 32 22
0.306636184453964233 1.14054536819458008 16.5604763031005859 247 184 175
-20.9226341247558594 8.39587879180908203 32.0602798461914062 83 40 31
5.62429094314575195 3.02201747894287109 23.4819488525390625 132 51 30
0.198913231492042542 1.97016239166259766 16.5936450958251953 201 101 111
0.790323436260223389 6.79231834411621094 10.9363241195678711 0 0 0
-1.56775498390197754 1.44239342212677002 17.2945785522460938 161 61 38
-2.48505139350891113 3.58209013938903809 15.5040607452392578 201 109 108
-13.1928892135620117 -21.8317699432373047 38.7033805847167969 109 68 66
-1.45785021781921387 4.52234935760498047 16.6437435150146484 223 125 114
-0.744685471057891846 3.0500638484954834 16.6691932678222656 209 115 105
0.974122762680053711 1.31893324851989746 17.0365848541259766 204 78 68
-2.71169137954711914 3.78593707084655762 16.7757186889648438 223 152 134
-0.583522617816925049 1.83771193027496338 16.5652885437011719 197 107 104
-0.714159190654754639 1.85527360439300537 16.4048576354980469 220 185 179
3.74798917770385742 2.28444528579711914 10.7718667984008789 179 80 61
-0.865887284278869629 1.49459564685821533 16.4191570281982422 160 59 47
2.17208480834960938 -3.37231945991516113 18.2041797637939453 159 53 31
-1.36336719989776611 2.26958227157592773 16.6401329040527344 189 105 87
3.01178789138793945 -8.49309825897216797 22.6739749908447266 77 20 5
-10.2742786407470703 -4.22635984420776367 22.8330287933349609 161 117 114
-13.3030500411987305 27.9766349792480469 50.4345207214355469 0 0 0
-1.22663545608520508 -5.25473594665527344 12.3841552734375 60 10 0
2.89404726028442383 5.27554655075073242 12.7586641311645508 54 7 1
-1.82815647125244141 3.95328855514526367 16.8745288848876953 232 236 237
2.86056160926818848 -10.6725015640258789 25.6542835235595703 69 25 16
-0.096692994236946106 0.280333548784255981 17.414031982421875 214 112 90
-1.65675044059753418 7.34449958801269531 17.6316814422607422 48 16 11
-1.98800253868103027 4.03040552139282227 16.1664829254150391 186 111 151
-2.822418212890625 3.46388506889343262 15.1058597564697266 217 113 100
-0.111161895096302032 0.334947884082794189 17.2733497619628906 180 88 67
-2.07475686073303223 3.10367465019226074 14.5075674057006836 181 103 117
-6.64240550994873047 0.0742417499423027039 13.8750467300415039 133 84 63
-0.923154115676879883 1.72621762752532959 16.0139198303222656 241 171 138
-1.4471278190612793 4.19359064102172852 16.1755142211914062 252 230 225
2.6595923900604248 12.8687915802001953 27.2698554992675781 83 25 13
0.0168398134410381317 1.83456408977508545 16.8704643249511719 238 142 126
-1.03530609607696533 2.23653006553649902 16.6809654235839844 238 185 182
-0.710480809211730957 2.97944450378417969 16.6969528198242188 233 143 128
-0.256811052560806274 0.699806869029998779 17.8864593505859375 167 60 40
3.84903311729431152 5.11864471435546875 20.6884670257568359 176 86 62
0.51029205322265625 1.86138534545898438 15.8920583724975586 204 98 88
-1.45400643348693848 -0.882250547409057617 7.5385127067565918 86 46 45
6.25837898254394531 4.40673112869262695 25.9167404174804688 67 5 0
-2.93729448318481445 3.28939151763916016 16.2503013610839844 156 69 60
0.110973790287971497 0.926080405712127686 16.8585796356201172 208 117 114
1.50585043430328369 7.98024940490722656 12.9251470565795898 203 142 118
-9.45559978485107422 3.31167149543762207 13.214940071105957 133 94 79
4.09917783737182617 2.50986337661743164 17.2783832550048828 123 52 32
0.289300769567489624 0.663668930530548096 16.9594917297363281 157 54 38
1.80333399772644043 -20.0808143615722656 33.4076957702636719 54 21 13
