ply
format ascii 1.0
element vertex 676
property float x
property float y
property float z
property uchar red
property uchar green
property uchar blue
end_header
3.27912425994873047 -0.170498892664909363 55.2400474548339844 47 48 45
-0.406268566846847534 0.185951799154281616 54.5591888427734375 156 188 218
-0.970523595809936523 1.17834258079528809 54.4451713562011719 26 26 24
1.28766071796417236 -2.85060572624206543 56.6466026306152344 157 150 141
1.53380215167999268 -0.255042999982833862 54.7856101989746094 0 0 0
2.88117504119873047 -0.547215282917022705 54.7311248779296875 82 105 127
-1.60819005966186523 1.12878108024597168 54.3173789978027344 208 221 226
3.12879157066345215 0.137186482548713684 55.5450325012207031 41 55 79
-5.87625837326049805 1.92278194427490234 59.0946311950683594 140 139 137
-0.277771204710006714 1.00461685657501221 54.3575820922851562 31 32 33
2.80310177803039551 -0.584866166114807129 54.9825401306152344 35 40 41
-1.11061000823974609 0.176892712712287903 55.1815185546875 0 0 0
-1.85796129703521729 0.492525696754455566 55.2800559997558594 63 53 52
0.926848888397216797 -0.117031261324882507 54.7381820678710938 138 170 200
-2.1972501277923584 -4.22199392318725586 59.6821441650390625 92 85 74
-1.56373178958892822 1.28947591781616211 54.3152313232421875 118 102 90
-0.15378125011920929 -1.77635252475738525 56.4335556030273438 0 0 0
-0.328152358531951904 0.173610150814056396 54.7653961181640625 153 186 212
1.44175863265991211 -1.65869510173797607 58.0864639282226562 98 89 80
3.08267927169799805 0.381327539682388306 55.5661163330078125 128 118 108
-0.398069053888320923 1.03537225723266602 54.427947998046875 39 55 63
-4.04424238204956055 1.19707226753234863 56.7807579040527344 147 144 139
1.26523077487945557 0.736862897872924805 54.7423515319824219 99 84 74
-1.0334782600402832 1.19805014133453369 54.3944282531738281 103 95 84
2.42412376403808594 -0.498172760009765625 54.9098892211914062 56 66 79
6.43101167678833008 -0.452055156230926514 57.2006072998046875 0 0 0
1.45666170120239258 0.674056410789489746 54.8040390014648438 33 30 25
2.68432974815368652 0.382700055837631226 55.0485153198242188 32 26 32
-4.07767629623413086 5.50488376617431641 56.1269264221191406 0 0 0
-0.243736222386360168 -2.27725076675415039 57.9161376953125 135 142 137
0.527661919593811035 -0.0246322229504585266 54.6373786926269531 144 173 201
-1.07008147239685059 0.170413658022880554 55.3748359680175781 83 79 83
-2.07404637336730957 0.742086529731750488 58.2977676391601562 0 0 0
2.10944604873657227 -0.375872641801834106 54.9717140197753906 137 165 186
2.45306015014648438 -0.453582733869552612 54.9996337890625 84 104 128
-0.314032018184661865 1.06248652935028076 54.5928306579589844 44 35 26
0.0635146871209144592 0.836813926696777344 54.5444450378417969 68 98 117
-0.236329793930053711 1.01700317859649658 54.96331787109375 29 37 39
-0.203510984778404236 0.108367092907428741 54.5726089477539062 85 103 117
3.13983893394470215 0.219729229807853699 55.0346603393554688 215 231 241
-1.36263871192932129 0.354505926370620728 54.3444175720214844 195 213 235
-1.46519136428833008 1.1384207010269165 54.3436470031738281 145 166 183
-4.54561281204223633 5.25696086883544922 56.4463844299316406 138 147 144
0.00223744870163500309 -3.59557557106018066 56.7174644470214844 116 117 108
2.82733368873596191 -0.560732483863830566 55.19580078125 160 169 167
-0.8178672194480896 1.12203776836395264 54.4571418762207031 81 88 93
-1.98026537895202637 3.90535259246826172 57.5629081726074219 37 35 34
6.25534296035766602 -0.740760862827301025 57.9699516296386719 126 115 102
-1.722756028175354 0.350479334592819214 54.5250244140625 121 105 90
0.838470935821533203 0.822693705558776855 54.5070762634277344 102 97 78
0.763048112392425537 0.69754481315612793 54.7130622863769531 46 71 84
-0.0441083014011383057 -3.65041089057922363 57.7953681945800781 158 156 151
3.21459245681762695 -0.479143202304840088 55.0463714599609375 59 65 74
2.47020936012268066 -0.489848941564559937 54.9886932373046875 159 175 197
2.35626673698425293 -2.38725852966308594 57.2181472778320312 0 0 0
0.226182207465171814 0.758762001991271973 54.6350173950195312 143 174 203
0.391323059797286987 0.925505936145782471 54.5157279968261719 115 100 85
1.69674444198608398 0.652972042560577393 54.8302764892578125 92 75 60
-3.72037482261657715 0.480614304542541504 57.6032218933105469 0 0 0
-0.27710077166557312 1.07468938827514648 54.5069923400878906 95 88 80
-4.67496395111083984 -2.9881129264831543 58.5620994567871094 149 152 143
-10.9329185485839844 1.42073798179626465 61.9188308715820312 130 136 134
2.33908557891845703 0.401386231184005737 55.0340194702148438 99 118 135
1.95455467700958252 0.478728502988815308 55.0390701293945312 87 115 130
0.922662019729614258 0.803561031818389893 54.5962371826171875 93 82 73
6.96542835235595703 2.83457207679748535 57.0521163940429688 0 0 0
1.08304190635681152 0.701326429843902588 54.5967941284179688 0 0 0
-1.11778092384338379 1.19062685966491699 54.2789955139160156 51 48 48
2.93153142929077148 -0.5596352219581604 55.35711669921875 70 91 109
-1.66936814785003662 0.922949910163879395 54.395111083984375 55 67 96
-1.40489804744720459 0.383343696594238281 54.3839035034179688 73 91 109
3.96851229667663574 2.94689369201660156 55.3443336486816406 164 160 157
-4.50816917419433594 2.30982232093811035 57.2277069091796875 0 0 0
3.18449831008911133 -0.494397670030593872 55.0399513244628906 217 235 243
-1.66067028045654297 0.615342497825622559 54.3082962036132812 73 98 129
3.11171460151672363 -0.545456051826477051 55.0997428894042969 92 114 142
-0.370411902666091919 0.995594978332519531 54.4488143920898438 79 98 104
-1.51287686824798584 1.17764508724212646 54.306610107421875 140 169 183
2.84853577613830566 -0.576391875743865967 55.206756591796875 154 175 196
0.735186934471130371 0.730343759059906006 54.8431472778320312 81 103 119
0.234557569026947021 -0.000222700575250200927 54.3027496337890625 0 0 0
3.09777021408081055 3.50890064239501953 57.6874313354492188 149 149 141
-2.61905789375305176 -1.21578490734100342 58.1919631958007812 119 109 98
2.20172882080078125 6.48221731185913086 57.2511444091796875 117 116 106
-3.86851215362548828 2.80356812477111816 57.7547798156738281 152 143 128
-5.14761590957641602 3.16927623748779297 57.6998138427734375 0 0 0
-3.44217681884765625 0.520825862884521484 57.1874427795410156 0 0 0
-0.886816084384918213 -1.66258537769317627 57.5651779174804688 133 132 127
-1.61436903476715088 -1.28370749950408936 57.8598480224609375 0 0 0
-0.706017553806304932 5.93962907791137695 57.542877197265625 157 155 143
-1.39259195327758789 -0.382239669561386108 57.8257789611816406 131 123 112
-1.53361380100250244 2.74411678314208984 57.7439651489257812 144 143 139
1.26660811901092529 0.709316134452819824 54.7755126953125 43 47 53
1.8188098669052124 0.557601332664489746 54.0767669677734375 54 50 51
2.94289231300354004 -0.569833993911743164 55.4101066589355469 114 141 159
-2.34674310684204102 -0.90468209981918335 55.7540702819824219 0 0 0
-3.25768327713012695 -0.0853779539465904236 57.690521240234375 129 120 103
-0.374822169542312622 0.161445960402488708 54.6188392639160156 112 137 161
-0.740912556648254395 3.1641991138458252 57.6310882568359375 133 117 101
1.7358396053314209 4.54747629165649414 55.2011604309082031 171 161 149
-3.85729718208312988 3.66022586822509766 57.0871429443359375 155 143 129
-1.63422131538391113 0.918405711650848389 54.3487625122070312 217 239 247
3.11055898666381836 -0.576217889785766602 55.0567245483398438 48 58 75
1.36594855785369873 0.609354794025421143 54.6013031005859375 91 114 130
2.61876487731933594 -0.630760431289672852 55.4822311401367188 110 99 91
-7.29280424118041992 0.666225969791412354 57.4101905822753906 140 131 122
-3.82738900184631348 0.399898290634155273 58.1071853637695312 149 152 145
0.255030512809753418 -3.0932009220123291 57.1968040466308594 92 96 92
-0.308237135410308838 3.5544581413269043 54.1357574462890625 0 0 0
-5.02907943725585938 1.45304465293884277 58.6941947937011719 0 0 0
1.67545843124389648 -0.276376992464065552 54.8166542053222656 142 166 192
0.834797441959381104 -2.00504398345947266 57.1364173889160156 140 139 135
-1.42431068420410156 -4.96565008163452148 59.2921524047851562 154 144 143
2.72988390922546387 -0.597184181213378906 55.2088088989257812 115 114 115
-4.50733184814453125 2.27158069610595703 57.7702560424804688 139 139 139
-0.886944353580474854 2.5695655345916748 56.8412322998046875 141 134 124
1.34472751617431641 0.603433668613433838 55.1015205383300781 87 107 118
-2.58318495750427246 0.0194358769804239273 57.8197898864746094 105 103 95
0.445865392684936523 0.860283195972442627 54.2361679077148438 51 48 58
2.18325090408325195 -2.67854642868041992 55.9279289245605469 152 151 146
-0.767442226409912109 -3.17520666122436523 56.0696029663085938 164 163 161
0.237247541546821594 -3.07077550888061523 57.1916160583496094 149 150 144
-6.00520658493041992 -0.0251079220324754715 57.4541702270507812 136 107 93
1.75529873371124268 0.608373343944549561 54.8252754211425781 24 20 17
-1.67323458194732666 0.48390623927116394 54.3634109497070312 78 97 127
-0.969616889953613281 -2.85401225090026855 59.1115646362304688 144 141 142
-6.01548480987548828 3.79295897483825684 55.7238502502441406 146 137 127
-1.35904407501220703 0.328288108110427856 54.3094940185546875 47 61 72
2.65163397789001465 -0.544493913650512695 54.7630081176757812 96 95 101
3.11336684226989746 -0.540695667266845703 55.1197853088378906 92 114 142
-1.53597092628479004 1.0982506275177002 54.4409103393554688 78 98 127
3.20630645751953125 0.0704633072018623352 55.5813446044921875 131 151 162
-0.807967007160186768 2.29862880706787109 57.0868072509765625 120 105 89
-6.04980039596557617 2.31973361968994141 57.0982551574707031 0 0 0
1.48920369148254395 -1.43853557109832764 54.1107521057128906 0 0 0
-0.16393907368183136 1.35445678234100342 57.6966629028320312 119 101 85
-3.39732217788696289 1.00358104705810547 57.658935546875 0 0 0
-0.912046670913696289 -1.6429983377456665 58.0035133361816406 0 0 0
0.0410246551036834717 0.894885659217834473 54.70660400390625 66 89 103
-1.21648132801055908 3.54895472526550293 57.5329513549804688 140 136 122
1.63912475109100342 0.666977643966674805 55.0397109985351562 0 0 0
1.41412532329559326 2.03197479248046875 55.8327903747558594 0 0 0
3.18848776817321777 -0.629123866558074951 55.2620849609375 75 81 87
2.2679600715637207 1.62582838535308838 58.0629158020019531 124 121 116
-1.31377780437469482 0.353830188512802124 54.244354248046875 163 179 191
0.0176671892404556274 2.84418368339538574 57.0240936279296875 129 119 107
-1.61914145946502686 1.11538803577423096 54.3026466369628906 206 218 233
2.41446995735168457 -0.467924028635025024 55.1295661926269531 71 78 89
-2.61242580413818359 -2.69201827049255371 58.4519157409667969 145 146 141
-2.38272571563720703 -1.46297180652618408 58.1762428283691406 141 141 129
-3.71194863319396973 -0.1821746826171875 58.445068359375 134 132 123
-1.45306706428527832 0.360344260931015015 54.353118896484375 201 217 227
0.343885451555252075 0.939779400825500488 54.5648002624511719 104 90 77
-3.59184741973876953 -1.57244777679443359 59.4532432556152344 129 119 108
-2.05767226219177246 0.457152664661407471 57.0268936157226562 129 114 93
-1.47373640537261963 1.27713453769683838 54.3124198913574219 65 63 66
-6.07900762557983398 -3.16460037231445312 58.84185791015625 144 143 137
2.66948437690734863 -0.649238944053649902 54.9815330505371094 91 82 67
-5.78316497802734375 0.846020162105560303 56.97784423828125 155 148 138
-4.19926691055297852 -2.8783724308013916 59.00927734375 146 149 142
-6.62113046646118164 -0.850151002407073975 59.344696044921875 133 106 89
-1.46873199939727783 0.338211417198181152 54.4445075988769531 37 45 51
1.70342779159545898 0.484226316213607788 54.696258544921875 0 0 0
-4.38460540771484375 -1.39815413951873779 57.8178291320800781 152 145 137
-2.52093100547790527 -2.89523744583129883 58.614471435546875 150 151 145
-1.13054609298706055 0.272504806518554688 54.4277000427246094 51 63 72
-6.72048377990722656 3.21934914588928223 59.2193984985351562 0 0 0
-2.86136507987976074 3.56827139854431152 57.2148551940917969 121 113 105
-3.6259758472442627 -2.37046432495117188 58.6903839111328125 149 151 146
-2.5276648998260498 -0.527917206287384033 57.9124717712402344 119 102 91
-0.0133015746250748634 1.04802048206329346 54.8235702514648438 95 81 65
2.50644707679748535 0.35402187705039978 54.9052696228027344 60 70 80
-0.515108942985534668 1.03626871109008789 54.3544158935546875 71 87 94
2.94243645668029785 -0.589796662330627441 55.1255264282226562 214 225 225
7.67672491073608398 0.577049791812896729 57.6764335632324219 134 127 116
2.86750316619873047 -0.547834455966949463 54.9300308227539062 100 120 146
2.06291913986206055 2.71408963203430176 55.8534393310546875 151 152 146
-2.61203742027282715 -2.69310212135314941 58.4570999145507812 145 146 141
0.076326906681060791 0.996552050113677979 54.6320266723632812 114 105 92
-2.06663966178894043 0.515375614166259766 56.2612724304199219 127 112 95
1.90031445026397705 -1.33396542072296143 56.569580078125 0 0 0
-0.926321983337402344 1.20199930667877197 54.4581642150878906 98 86 73
-5.16940164566040039 -0.963131546974182129 58.1591033935546875 0 0 0
0.223843470215797424 -2.08084368705749512 58.1675071716308594 143 147 146
3.16240072250366211 -0.768772542476654053 56.5569648742675781 115 107 94
-0.658110618591308594 4.99919748306274414 51.484100341796875 0 0 0
3.73413586616516113 0.228691920638084412 57.0039634704589844 125 126 120
-0.470932692289352417 -3.76686978340148926 58.1814308166503906 0 0 0
-3.39771747589111328 -1.58703088760375977 58.2766342163085938 0 0 0
-1.73994612693786621 0.523849546909332275 54.4415969848632812 38 50 77
2.54320287704467773 -2.12310624122619629 58.0177001953125 141 132 127
2.20139527320861816 1.74459993839263916 55.8029823303222656 134 127 121
-0.404900997877120972 1.39359116554260254 58.1622657775878906 111 103 101
0.335916608572006226 -2.51574921607971191 57.8418540954589844 141 147 145
-6.915435791015625 -0.425949245691299438 59.5825119018554688 139 126 116
-4.89993858337402344 2.42576742172241211 57.435302734375 161 156 144
1.19063615798950195 0.671032547950744629 54.8487014770507812 58 69 79
0.284258335828781128 0.951687335968017578 54.5972976684570312 88 81 69
-1.08545935153961182 0.27884441614151001 54.4838943481445312 77 86 96
-0.913177192211151123 1.14232742786407471 54.6247482299804688 32 51 65
-0.23795492947101593 1.18628191947937012 54.9611053466796875 114 102 88
0.0830887481570243835 -0.356727510690689087 56.6230545043945312 116 108 97
-1.93808174133300781 -3.83753681182861328 57.7898788452148438 58 56 55
-1.77543985843658447 -0.822772681713104248 58.1221427917480469 105 102 100
0.328005611896514893 -3.1190025806427002 55.8369674682617188 0 0 0
-5.69099330902099609 -1.45908069610595703 58.6420707702636719 144 144 142
-2.25702643394470215 -0.669833779335021973 58.2450981140136719 138 137 132
0.416654050350189209 -1.64306402206420898 57.3594093322753906 142 138 135
-8.37675857543945312 -1.66508471965789795 61.5268287658691406 139 143 144
3.20428085327148438 0.192430645227432251 55.3123970031738281 199 209 218
2.61771368980407715 -0.539537250995635986 55.126739501953125 0 0 0
-6.35030937194824219 3.68722701072692871 58.4701957702636719 0 0 0
2.17629027366638184 -2.67521238327026367 55.8468742370605469 142 144 143
-0.556114912033081055 -4.17473316192626953 59.38031005859375 145 146 138
-4.67808055877685547 -3.09287214279174805 59.0688552856445312 146 152 150
1.04365396499633789 0.650858521461486816 54.7284889221191406 37 63 73
-9.35044002532958984 1.72469043731689453 61.6179962158203125 124 117 107
6.97849798202514648 2.82989358901977539 57.453521728515625 0 0 0
-1.76621174812316895 1.87933707237243652 57.1183738708496094 0 0 0
-0.183638542890548706 1.03012144565582275 54.5346221923828125 41 37 34
-1.90760159492492676 0.719843208789825439 56.0068511962890625 0 0 0
1.13401532173156738 0.73370063304901123 54.6007575988769531 38 32 36
1.07902252674102783 -3.14033341407775879 58.4384536743164062 143 146 139
0.755766987800598145 -1.41682469844818115 57.5862579345703125 156 148 145
-4.05208063125610352 0.828458487987518311 57.7181243896484375 0 0 0
1.09696280956268311 -3.45272421836853027 57.2469673156738281 0 0 0
-4.49276113510131836 2.33947157859802246 57.4875717163085938 153 144 129
-0.373707950115203857 -5.51698160171508789 59.8704566955566406 146 146 144
-8.01806640625 0.92690742015838623 60.9212303161621094 123 113 101
-3.20000720024108887 -0.379768490791320801 57.9585647583007812 148 145 138
-6.12422466278076172 -3.2830348014831543 59.7829093933105469 143 145 142
-5.04770994186401367 -0.0917375907301902771 57.7026481628417969 150 142 130
-1.70810568332672119 0.609432876110076904 54.3936576843261719 39 51 75
0.192086964845657349 0.811743199825286865 54.6236534118652344 67 90 107
2.85146713256835938 0.367059141397476196 55.0858154296875 109 96 79
3.00910091400146484 -2.1861884593963623 57.0929794311523438 144 145 139
-0.275031536817550659 -1.73079013824462891 58.3446540832519531 0 0 0
1.25161778926849365 0.675624310970306396 54.8180999755859375 36 47 64
-1.02223551273345947 -4.07443904876708984 58.8592033386230469 143 142 138
2.49596405029296875 0.511908233165740967 55.4342155456542969 101 92 72
2.77187991142272949 -0.517781198024749756 54.9264297485351562 114 142 163
-7.71037912368774414 0.540965020656585693 60.1818199157714844 100 100 99
-2.25964045524597168 -0.67489856481552124 58.2782821655273438 107 106 102
2.29727864265441895 0.430895298719406128 55.510833740234375 0 0 0
0.697722911834716797 0.794994592666625977 54.9581031799316406 31 36 45
4.28433322906494141 4.89810323715209961 57.7711639404296875 154 155 149
0.854091942310333252 -2.02305936813354492 57.1763725280761719 130 128 121
1.13022279739379883 0.778122901916503906 54.87908935546875 94 84 69
-0.400103896856307983 -3.81182599067687988 58.9692306518554688 131 121 109
-0.399307548999786377 -3.81650686264038086 59.0444526672363281 131 121 109
1.5041038990020752 0.526628553867340088 55.2011642456054688 99 131 144
-0.819791913032531738 1.68841338157653809 57.5746192932128906 121 114 106
-1.35643315315246582 -1.36160492897033691 57.8966064453125 135 144 141
-0.59056556224822998 2.1929938793182373 54.8124008178710938 0 0 0
-6.17029476165771484 2.1931455135345459 57.9713973999023438 146 137 132
-2.49027085304260254 3.78017592430114746 56.5532035827636719 134 136 134
2.27494382858276367 -0.563591480255126953 55.3828125 0 0 0
-1.54810726642608643 2.42973995208740234 56.7564582824707031 132 128 125
0.853202164173126221 0.842119097709655762 54.9225273132324219 118 96 76
-5.70893144607543945 -1.47672379016876221 59.7990913391113281 143 145 140
-0.0356379151344299316 0.997214436531066895 54.7637443542480469 28 25 21
-2.94970393180847168 -1.48903155326843262 58.4026374816894531 138 144 144
-1.7605515718460083 1.58497714996337891 56.1722602844238281 0 0 0
-1.56172168254852295 1.1985313892364502 54.3346633911132812 239 255 255
-2.73677992820739746 -1.62992632389068604 58.318023681640625 103 92 77
-0.276442974805831909 1.08167243003845215 54.6417732238769531 95 82 65
-6.69087934494018555 0.794542014598846436 59.3838424682617188 129 119 110
-5.83918380737304688 -2.03254079818725586 58.8611831665039062 146 144 141
-5.16142177581787109 3.21313023567199707 57.7163581848144531 0 0 0
-6.46804714202880859 -1.97101342678070068 60.4972267150878906 138 138 133
-4.09046125411987305 1.05884194374084473 58.6287841796875 147 151 150
-2.47994017601013184 -0.469314992427825928 58.2113876342773438 124 112 96
-0.881326019763946533 -1.58489203453063965 57.2938957214355469 0 0 0
-1.40790092945098877 1.19315612316131592 54.428131103515625 135 143 149
-6.92404842376708984 -0.430921465158462524 59.659515380859375 148 138 138
1.13292026519775391 -5.40317535400390625 60.2970619201660156 129 122 107
-2.73953914642333984 -1.63035798072814941 58.38494873046875 113 101 84
0.888800621032714844 0.836310148239135742 54.7083587646484375 98 81 63
-1.11132395267486572 0.316780894994735718 54.4682846069335938 60 71 76
-0.230439454317092896 1.07292115688323975 54.5815238952636719 99 86 70
-1.01931047439575195 1.2124704122543335 54.3925132751464844 106 90 74
2.08097171783447266 0.747882246971130371 57.9935150146484375 0 0 0
-1.65248620510101318 0.370069980621337891 54.4381790161132812 63 61 72
9.29942798614501953 0.151526734232902527 58.1962242126464844 163 159 155
-1.4499431848526001 1.20880770683288574 54.5971832275390625 178 206 222
-1.26095676422119141 -1.37662053108215332 56.4773826599121094 109 107 102
0.877937912940979004 1.93792724609375 55.1260604858398438 104 101 99
1.84855854511260986 -2.37710809707641602 56.8019523620605469 125 118 109
-1.6891014575958252 0.783824145793914795 54.3142929077148438 56 71 93
0.495834082365036011 -3.56312704086303711 59.2105789184570312 142 143 143
-2.5199592113494873 -2.87981772422790527 58.675018310546875 132 132 125
-6.54313802719116211 1.25981533527374268 59.1652565002441406 141 147 145
-2.60611367225646973 -1.21186220645904541 57.82830810546875 119 105 84
2.52958559989929199 -0.48188859224319458 55.2720146179199219 130 145 158
-7.3084869384765625 4.18409585952758789 58.5133094787597656 129 119 107
0.141983002424240112 0.937210977077484131 54.6136093139648438 53 56 60
3.03220534324645996 0.38144645094871521 55.816741943359375 114 104 93
-1.07213497161865234 5.67886686325073242 57.7827644348144531 162 151 149
-1.12575030326843262 1.42917764186859131 56.096527099609375 123 109 96
-1.62634384632110596 1.02275538444519043 54.2300300598144531 91 105 127
1.60125112533569336 0.604278624057769775 54.9636039733886719 44 62 68
1.60607516765594482 -1.98882687091827393 56.3805198669433594 0 0 0
0.243575826287269592 -3.01755595207214355 55.8858680725097656 0 0 0
-4.02717447280883789 0.948987483978271484 56.5903549194335938 0 0 0
2.29197192192077637 0.539251923561096191 55.0743141174316406 96 84 70
-3.62587881088256836 -2.36496424674987793 58.61151123046875 135 137 132
2.1399385929107666 0.683585882186889648 56.4724540710449219 0 0 0
-7.76469945907592773 2.51798844337463379 60.3725166320800781 129 118 100
1.41864752769470215 0.717518746852874756 54.9329833984375 104 86 73
-1.58295977115631104 0.945028126239776611 54.3671646118164062 92 123 152
1.31532406806945801 0.823638856410980225 56.039031982421875 68 57 46
-6.56978178024291992 1.3206627368927002 59.4922103881835938 139 145 141
3.07520842552185059 0.247419804334640503 55.0861129760742188 122 137 144
-6.26699066162109375 3.15492153167724609 57.0697708129882812 156 148 137
-2.08517360687255859 -2.80475616455078125 58.4993667602539062 132 133 128
5.57486867904663086 1.22453463077545166 55.4769859313964844 0 0 0
2.77187919616699219 -0.522394120693206787 55.04791259765625 109 141 162
-1.63089311122894287 0.805060207843780518 54.3791351318359375 69 95 124
2.63382625579833984 -0.484194725751876831 55.0149040222167969 85 109 130
4.40041208267211914 3.4363555908203125 56.4753570556640625 156 158 153
0.703764855861663818 -0.782407045364379883 57.1575126647949219 70 65 58
-6.72287273406982422 3.21352910995483398 59.1799240112304688 130 121 107
-5.68516826629638672 0.94952160120010376 57.0591850280761719 50 47 44
-0.448344260454177856 1.11556363105773926 54.3346099853515625 94 81 65
0.392576217651367188 0.86696547269821167 54.6498222351074219 48 57 62
0.281819969415664673 0.955483973026275635 54.6984329223632812 97 84 68
-7.26652812957763672 -1.04410266876220703 57.4255561828613281 0 0 0
-6.22673845291137695 1.24129760265350342 57.3704185485839844 0 0 0
-9.54678726196289062 0.452216118574142456 61.3095893859863281 140 140 140
-2.48499917984008789 -1.23716235160827637 57.8908843994140625 0 0 0
-3.65316605567932129 -0.176088303327560425 57.5814208984375 0 0 0
7.67413663864135742 0.577934324741363525 57.680419921875 134 127 116
-0.882338583469390869 1.19673025608062744 54.5475807189941406 106 90 75
-6.84660100936889648 3.12099051475524902 58.3585052490234375 153 146 132
-3.82711338996887207 3.55292153358459473 57.3649978637695312 145 139 126
3.31355667114257812 -0.27255481481552124 55.4991950988769531 119 110 107
-1.6539158821105957 0.661037683486938477 54.5228004455566406 0 0 0
-0.255284249782562256 1.07795190811157227 54.2864646911621094 89 83 69
-8.26335811614990234 -0.234793856739997864 61.1917152404785156 142 142 140
-8.38123035430908203 -1.66477525234222412 61.6946525573730469 144 148 147
-7.78697967529296875 -1.12518167495727539 60.7699012756347656 140 138 139
-4.15153026580810547 2.71890497207641602 57.4594993591308594 142 135 123
0.778611958026885986 -1.52422010898590088 56.4137039184570312 0 0 0
-8.69259834289550781 2.3092350959777832 61.1478042602539062 147 152 148
-1.19587409496307373 0.308428257703781128 54.3785400390625 137 148 150
-5.67621517181396484 -0.0754780992865562439 59.4205245971679688 143 148 144
-1.69692564010620117 0.733247637748718262 54.3438529968261719 50 60 87
-9.14104461669921875 -0.229315027594566345 61.2916831970214844 134 134 132
-0.689860999584197998 2.14940738677978516 54.4168777465820312 0 0 0
-6.57252979278564453 1.29403996467590332 59.7971611022949219 146 150 149
-8.092132568359375 2.24517965316772461 61.06304931640625 143 145 134
1.8486475944519043 2.81144046783447266 56.5708999633789062 140 140 138
-2.31573367118835449 1.5863187313079834 57.0033912658691406 89 88 85
3.27591276168823242 0.227768957614898682 55.4346771240234375 52 53 60
-1.11470174789428711 -2.71020245552062988 58.31793212890625 90 92 90
-1.07308542728424072 0.370784729719161987 54.4951133728027344 124 156 173
-6.71209573745727539 3.71963238716125488 56.6591072082519531 142 134 125
-1.12216246128082275 -2.71440315246582031 58.3206787109375 0 0 0
10.3029241561889648 0.421226471662521362 58.3173866271972656 157 155 148
-0.687985062599182129 1.17052757740020752 54.5459365844726562 100 79 62
-1.58097958564758301 1.14853298664093018 54.3389892578125 74 92 117
-0.380945742130279541 1.05683660507202148 54.1418266296386719 41 50 59
1.73677027225494385 -3.17210626602172852 56.8064384460449219 160 162 157
2.71967649459838867 -0.535240411758422852 54.9538421630859375 134 155 174
-6.56508350372314453 1.42210733890533447 59.8570594787597656 150 155 153
-1.65106797218322754 0.834471344947814941 54.3633575439453125 122 147 179
-1.43492472171783447 0.332291722297668457 54.380645751953125 0 0 0
1.23556375503540039 -1.90886926651000977 57.2261619567871094 0 0 0
0.94573509693145752 0.713161766529083252 54.6672172546386719 70 93 105
-3.75248384475708008 0.521120905876159668 57.6718711853027344 143 147 151
-0.888297021389007568 1.23620414733886719 54.9631309509277344 100 85 69
-7.66851043701171875 -2.02831816673278809 60.71600341796875 142 139 134
-0.37858271598815918 0.969171106815338135 54.4655342102050781 69 101 114
-1.60332465171813965 1.16536641120910645 54.2993202209472656 211 227 230
-1.53178691864013672 1.11875319480895996 54.3857498168945312 74 92 117
4.368255615234375 4.74563503265380859 55.9121818542480469 149 151 146
-2.94244074821472168 -0.855096280574798584 58.3959121704101562 0 0 0
-1.75853919982910156 1.05116260051727295 55.1097068786621094 54 49 46
-6.92650556564331055 0.534081161022186279 60.3198814392089844 144 143 136
0.722816646099090576 0.891983628273010254 55.294921875 101 87 68
-1.75922596454620361 1.02193927764892578 55.0555877685546875 0 0 0
-0.207913383841514587 -2.7371218204498291 59.2303390502929688 0 0 0
-2.57093977928161621 -1.66423201560974121 56.5916709899902344 128 112 96
4.0592498779296875 0.145152390003204346 57.3958396911621094 0 0 0
-1.08417129516601562 4.81542730331420898 54.6427116394042969 0 0 0
0.218577414751052856 0.839860439300537109 54.5972442626953125 139 157 176
0.250566095113754272 1.24212098121643066 55.63287353515625 0 0 0
-0.275563836097717285 0.986709356307983398 54.5400314331054688 87 114 124
-1.70730376243591309 0.845372915267944336 54.9563102722167969 72 70 81
-4.1963963508605957 2.54987001419067383 58.2879905700683594 140 141 135
-1.78399538993835449 1.69862270355224609 57.4889564514160156 133 126 117
-1.32191526889801025 1.16978633403778076 54.3582992553710938 44 44 52
-6.7064208984375 3.3408818244934082 58.8487815856933594 127 119 105
2.35357904434204102 -0.595968306064605713 55.8809280395507812 57 50 49
-1.77294600009918213 1.08938705921173096 55.4996528625488281 76 69 58
-1.43879806995391846 1.1658484935760498 53.1916770935058594 115 138 154
1.47726917266845703 0.634355008602142334 54.8770637512207031 32 36 40
-1.59692049026489258 0.399063825607299805 54.5315170288085938 157 180 193
-0.0895004794001579285 -2.02033543586730957 56.0819435119628906 0 0 0
-1.64061450958251953 1.2384335994720459 54.7956886291503906 61 63 71
2.38621115684509277 0.527571260929107666 54.5285758972167969 117 96 73
-6.28623533248901367 -0.142056584358215332 59.7173576354980469 94 74 56
-2.35390853881835938 4.8551335334777832 54.2929039001464844 149 140 133
2.04102373123168945 0.475471377372741699 54.9677734375 104 122 130
-1.4043271541595459 0.32558932900428772 54.4193687438964844 77 78 82
3.2310340404510498 -0.462684303522109985 55.0934867858886719 0 0 0
-1.03924834728240967 0.165652111172676086 54.5099067687988281 83 71 60
-2.11661696434020996 1.53210198879241943 55.9594001770019531 0 0 0
1.716819167137146 0.569687902927398682 54.7717971801757812 37 45 53
2.62305188179016113 2.11271429061889648 55.4999046325683594 0 0 0
-2.06150078773498535 -2.80796027183532715 57.4819602966308594 152 142 140
-0.356491684913635254 -3.86584234237670898 57.6525344848632812 128 118 106
1.55202865600585938 -1.42645823955535889 56.9074440002441406 0 0 0
-1.59263324737548828 0.974482417106628418 54.3549041748046875 85 113 136
-1.6933751106262207 1.02561020851135254 54.1255111694335938 87 83 90
-2.28206443786621094 3.62423062324523926 57.4163742065429688 0 0 0
-0.808745324611663818 3.09063315391540527 57.2715225219726562 0 0 0
-0.27703481912612915 2.37604999542236328 57.7725944519042969 121 111 99
-1.50369882583618164 0.344923824071884155 54.4539299011230469 41 48 57
-0.193679913878440857 1.04532265663146973 54.9326171875 28 27 31
-0.202161312103271484 -2.75092387199401855 57.4366416931152344 0 0 0
-1.26893329620361328 1.23740875720977783 54.5799560546875 88 74 60
-1.81161391735076904 2.23760080337524414 55.3027725219726562 0 0 0
-1.79707217216491699 3.50039100646972656 57.7803306579589844 151 144 132
-1.55027365684509277 2.75402474403381348 57.956634521484375 129 129 118
-1.57315754890441895 3.72209954261779785 58.4874305725097656 136 113 90
-6.65865898132324219 -0.824715077877044678 60.0872154235839844 125 110 95
1.5382305383682251 -1.3520500659942627 57.1946067810058594 64 66 63
3.01169323921203613 0.234169095754623413 55.2486724853515625 49 56 68
1.75443470478057861 2.09625911712646484 55.449310302734375 135 135 122
-0.402349919080734253 -0.910690546035766602 56.8975334167480469 0 0 0
5.32439947128295898 2.89935660362243652 56.83038330078125 157 164 156
-2.37681484222412109 0.122664384543895721 56.9817428588867188 0 0 0
3.03232455253601074 -0.628289639949798584 54.8709640502929688 112 104 102
-1.71669268608093262 0.416190892457962036 54.2618484497070312 81 82 84
-1.67635715007781982 1.22744584083557129 54.4600563049316406 84 80 90
4.66666507720947266 -1.57781362533569336 55.8883743286132812 158 162 155
2.85018706321716309 0.488009065389633179 57.1131668090820312 0 0 0
0.243533045053482056 -2.11262011528015137 57.2360305786132812 0 0 0
-1.89959824085235596 -0.314148098230361938 57.0447845458984375 158 144 131
7.44312429428100586 0.0211108028888702393 57.9112777709960938 152 152 140
0.00909637939184904099 -3.58194208145141602 56.8201103210449219 144 141 137
-7.46123409271240234 1.4346078634262085 60.0717582702636719 147 147 146
-2.7523338794708252 -0.813571572303771973 56.7978591918945312 130 121 120
2.85084795951843262 0.311614155769348145 54.6720428466796875 0 0 0
0.646441340446472168 1.02955031394958496 56.4750328063964844 108 94 81
1.5264054536819458 0.864897310733795166 56.0842819213867188 0 0 0
1.5463937520980835 -1.3728330135345459 56.9545135498046875 112 112 108
1.93725144863128662 -1.34509706497192383 57.2485008239746094 149 141 130
4.825347900390625 -1.56295740604400635 57.3022079467773438 141 139 134
3.30994939804077148 0.213643759489059448 55.4910888671875 77 80 86
3.16826915740966797 0.216576606035232544 55.1569442749023438 103 111 124
-1.61072325706481934 0.34268641471862793 54.56756591796875 91 93 113
2.44159913063049316 -1.66672754287719727 57.0921173095703125 137 134 129
6.80104875564575195 1.72342860698699951 57.33282470703125 160 166 162
2.7642207145690918 4.0183258056640625 55.596343994140625 0 0 0
5.31788873672485352 -2.98395967483520508 56.6018028259277344 0 0 0
4.3707280158996582 1.33998894691467285 56.1642570495605469 0 0 0
5.39068460464477539 -2.98607611656188965 58.6980628967285156 167 164 155
2.69675636291503906 -0.649687707424163818 55.84332275390625 107 113 123
-4.8795008659362793 1.63617110252380371 57.4590377807617188 0 0 0
-3.49312686920166016 2.54557681083679199 57.084259033203125 0 0 0
-0.00484034931287169456 -0.176651403307914734 31.6092300415039062 0 0 0
2.08712315559387207 1.56856143474578857 57.8483009338378906 135 129 124
1.68235898017883301 -1.6297607421875 55.5983695983886719 97 87 73
-0.226099073886871338 -3.1893002986907959 58.763092041015625 29 30 30
0.401917874813079834 0.836944758892059326 54.6293067932128906 85 105 112
1.93838143348693848 -1.31421089172363281 57.7400779724121094 126 116 104
-1.90580964088439941 0.518175244331359863 55.9974288940429688 51 49 50
5.80085849761962891 1.80252671241760254 57.048919677734375 150 155 148
-4.53730392456054688 -4.89780855178833008 59.0901298522949219 132 134 133
2.28555917739868164 -0.475067675113677979 55.3605461120605469 72 79 108
-4.18274545669555664 2.66988086700439453 57.1298637390136719 0 0 0
-1.62441337108612061 1.02241671085357666 55.0714454650878906 86 108 143
-1.79062795639038086 1.06683456897735596 55.0256500244140625 71 67 69
-0.0493374839425086975 0.959759533405303955 54.3566932678222656 0 0 0
-2.3585667610168457 -1.45673048496246338 59.2883033752441406 0 0 0
-0.0539375320076942444 3.85965800285339355 55.3910598754882812 146 146 136
-0.046102568507194519 3.85995244979858398 55.2912063598632812 146 146 136
3.9330909252166748 0.35583031177520752 56.0749893188476562 139 143 144
3.1786496639251709 0.0665126442909240723 55.6574249267578125 71 102 159
5.0584111213684082 -1.80533349514007568 57.2468338012695312 0 0 0
-0.752307891845703125 1.17705667018890381 54.4438972473144531 106 94 82
3.9926149845123291 2.95038676261901855 56.3008499145507812 143 144 138
7.45643520355224609 -2.4412846565246582 56.0423812866210938 0 0 0
-4.74228239059448242 1.73113441467285156 57.552154541015625 115 108 100
-1.3473132848739624 2.77476334571838379 54.8948097229003906 0 0 0
-5.77252006530761719 1.92783713340759277 57.5639724731445312 155 148 135
0.572233855724334717 0.918643534183502197 55.0255088806152344 104 86 70
-1.67323577404022217 0.748332440853118896 54.4100227355957031 165 186 220
-0.113133653998374939 0.118461862206459045 54.6769943237304688 143 177 201
-2.52194333076477051 -0.0384797416627407074 57.7852554321289062 109 104 96
-2.00500035285949707 -0.311296194791793823 57.7976493835449219 87 83 76
-1.00264215469360352 1.11533534526824951 54.4071884155273438 0 0 0
-1.40216469764709473 1.29882800579071045 54.7235031127929688 118 104 97
10.3051118850708008 0.413172155618667603 58.4643707275390625 157 155 148
-1.3109816312789917 2.75431013107299805 54.5241508483886719 0 0 0
-2.03921723365783691 1.93524765968322754 57.4652481079101562 0 0 0
2.83019089698791504 1.19173169136047363 55.5307044982910156 140 130 129
4.22458267211914062 3.43153786659240723 55.9458045959472656 153 153 144
-0.558852732181549072 2.8282926082611084 54.7116470336914062 129 115 103
-1.61812281608581543 1.00045335292816162 54.2800636291503906 200 214 243
-1.88069832324981689 0.603907227516174316 55.5628585815429688 85 78 91
-5.82515192031860352 -2.09350228309631348 59.2577133178710938 0 0 0
2.25587320327758789 1.69818556308746338 55.4131622314453125 133 132 128
2.46241617202758789 -1.66624867916107178 57.2420310974121094 0 0 0
-2.41750741004943848 -0.524472475051879883 56.6553268432617188 121 105 89
-1.54367077350616455 3.45405316352844238 55.8561553955078125 121 108 99
0.122773759067058563 -5.45426797866821289 60.0582046508789062 148 148 146
-0.367216646671295166 -1.67440509796142578 56.7856826782226562 139 141 138
0.706830739974975586 3.25523805618286133 56.1766586303710938 0 0 0
3.30102705955505371 0.483945131301879883 56.6888656616210938 0 0 0
3.48690629005432129 -3.12584042549133301 57.581939697265625 0 0 0
3.7335813045501709 0.326825588941574097 57.5276985168457031 0 0 0
-0.383186191320419312 1.37917542457580566 56.6636238098144531 0 0 0
2.49338388442993164 -2.13694667816162109 57.3653984069824219 0 0 0
-1.97565829753875732 -0.330688327550888062 57.7346763610839844 135 134 132
-0.435435891151428223 -0.964900016784667969 56.5890007019042969 134 124 122
-0.259229093790054321 -1.28839206695556641 57.8113365173339844 114 100 84
0.272004961967468262 -3.08214426040649414 58.9784812927246094 125 129 127
-1.7173389196395874 0.90958106517791748 54.244476318359375 82 74 84
2.79639196395874023 0.528640329837799072 55.7900886535644531 0 0 0
0.371104568243026733 2.53003334999084473 57.2532691955566406 143 144 139
1.42288351058959961 0.85973280668258667 57.05145263671875 108 91 74
0.802066147327423096 0.706446230411529541 54.7843360900878906 105 131 151
-1.41389167308807373 1.3915863037109375 56.0812606811523438 119 100 85
-4.72427654266357422 -4.41300773620605469 58.2674789428710938 0 0 0
-1.1910477876663208 -2.0649261474609375 57.6650657653808594 147 142 146
-6.46638059616088867 -1.96844804286956787 60.4438018798828125 145 136 129
3.07103443145751953 -0.609941363334655762 55.1217002868652344 180 194 202
-6.94178199768066406 1.49089860916137695 59.7750396728515625 0 0 0
-0.707763969898223877 -1.88768601417541504 1.28294563293457031 145 145 145
-2.28458094596862793 1.46900343894958496 55.9365501403808594 0 0 0
-7.59545230865478516 3.92657566070556641 58.9280357360839844 143 140 135
-5.14855813980102539 3.03742218017578125 58.846221923828125 146 151 147
-0.678918778896331787 3.16583085060119629 54.3465576171875 0 0 0
-0.222989767789840698 3.08982157707214355 54.4586753845214844 141 139 135
0.444922775030136108 2.32134175300598145 58.2323570251464844 0 0 0
3.99419474601745605 2.92912960052490234 56.3050537109375 141 143 138
-2.28744983673095703 -1.47113001346588135 56.2143096923828125 0 0 0
-2.7928614616394043 0.991403281688690186 58.4518928527832031 0 0 0
-4.18245697021484375 0.755255281925201416 59.0069732666015625 0 0 0
-0.204857140779495239 -1.31661558151245117 57.3128929138183594 0 0 0
4.41763830184936523 0.0314349979162216187 56.6390151977539062 139 145 143
-0.616503715515136719 -0.630296528339385986 0.718781590461730957 0 0 0
3.36769938468933105 -2.26599931716918945 58.6094131469726562 146 142 139
4.73813009262084961 4.20180845260620117 56.6315803527832031 0 0 0
4.73813009262084961 4.20180845260620117 56.6315803527832031 0 0 0
-1.53949010372161865 0.351265996694564819 54.4894790649414062 0 0 0
-3.08313107490539551 1.02327048778533936 56.4416999816894531 0 0 0
-1.7594980001449585 0.619304060935974121 54.3644866943359375 0 0 0
-0.326413750648498535 -1.52675306797027588 0.26767200231552124 0 0 0
0.708115577697753906 0.698473870754241943 54.65289306640625 0 0 0
3.44331645965576172 2.22258925437927246 56.0844612121582031 0 0 0
2.24758052825927734 -0.714749336242675781 56.09832763671875 89 83 70
3.22470211982727051 0.177113130688667297 55.3569831848144531 135 151 149
-1.67660617828369141 0.634326696395874023 54.3322410583496094 132 143 176
1.22196090221405029 -1.96593856811523438 56.9670867919921875 0 0 0
2.30303788185119629 -0.606955766677856445 56.7677421569824219 49 47 40
7.09376955032348633 0.277400940656661987 57.4561309814453125 71 66 56
4.05565071105957031 -1.23283827304840088 58.2282943725585938 0 0 0
-7.89007472991943359 2.2386934757232666 58.7713127136230469 0 0 0
-0.45266193151473999 2.76302886009216309 56.9104156494140625 0 0 0
-4.54617023468017578 5.2606043815612793 56.4818077087402344 138 147 144
-1.99431955814361572 5.60920953750610352 55.2570991516113281 139 140 134
-6.43196010589599609 1.32221150398254395 57.9214744567871094 0 0 0
6.12824726104736328 -3.04599642753601074 55.7185897827148438 0 0 0
1.99600565433502197 4.83729314804077148 55.4536399841308594 0 0 0
1.44668185710906982 1.87697899341583252 57.1160469055175781 0 0 0
-5.8766322135925293 1.25618433952331543 23.6047649383544922 136 132 133
-2.95667433738708496 -0.785610735416412354 59.0649833679199219 0 0 0
3.22490668296813965 0.0567223392426967621 55.301483154296875 0 0 0
-1.47764086723327637 1.2963794469833374 54.8578605651855469 71 76 82
0.767222404479980469 -1.44837987422943115 57.9475440979003906 0 0 0
-1.46706414222717285 3.36071014404296875 57.6306571960449219 0 0 0
-0.753996849060058594 5.30446910858154297 57.4752159118652344 149 146 139
0.628156900405883789 5.0191960334777832 57.2164802551269531 159 156 149
-0.363347172737121582 4.68828153610229492 57.4101333618164062 152 145 139
1.28677475452423096 2.84047675132751465 56.5289649963378906 126 118 105
0.930303215980529785 3.79195022583007812 57.6948814392089844 0 0 0
7.37468719482421875 0.0273484960198402405 57.5584640502929688 0 0 0
-1.53512430191040039 2.67796540260314941 57.2283821105957031 139 139 134
-1.25367414951324463 0.350311934947967529 54.4730300903320312 0 0 0
2.47454094886779785 4.88404035568237305 56.1898384094238281 0 0 0
1.45603501796722412 3.9356071949005127 56.8358230590820312 148 149 144
3.46068382263183594 4.36348915100097656 55.8768119812011719 148 149 143
-2.9464118480682373 3.91994142532348633 57.5335693359375 132 118 98
2.18876957893371582 0.56145864725112915 55.1275901794433594 0 0 0
0.3265380859375 2.47107696533203125 56.8969306945800781 138 143 146
-0.708268821239471436 5.93902921676635742 57.5727386474609375 157 155 143
1.86481201648712158 2.82744455337524414 56.1624221801757812 140 139 137
3.52703237533569336 4.31752252578735352 56.7180595397949219 149 142 134
1.74637472629547119 3.41315698623657227 57.8821067810058594 172 168 165
-1.73260152339935303 -1.2704930305480957 58.2331352233886719 0 0 0
3.41681456565856934 -0.685963630676269531 57.5192031860351562 0 0 0
3.43915915489196777 -1.12916183471679688 57.7365303039550781 0 0 0
3.35981035232543945 -2.29895305633544922 57.2532119750976562 147 147 142
6.39289569854736328 -0.0939381048083305359 57.2345352172851562 0 0 0
2.94019865989685059 -0.633522450923919678 55.9155921936035156 0 0 0
-1.29988157749176025 3.5635840892791748 59.2867889404296875 0 0 0
-0.27750512957572937 -1.28695940971374512 58.4221076965332031 0 0 0
-2.48483848571777344 3.54235434532165527 56.7092514038085938 0 0 0
3.35716581344604492 -2.30864381790161133 57.8151626586914062 0 0 0
4.7634587287902832 -1.56363034248352051 56.7237625122070312 160 162 155
-1.57584214210510254 2.60296487808227539 56.425567626953125 0 0 0
-1.94863235950469971 -1.14996862411499023 55.8019828796386719 0 0 0
2.11282730102539062 0.497664481401443481 57.1427459716796875 0 0 0
-0.680292367935180664 -0.475276708602905273 57.4570541381835938 0 0 0
-2.1633918285369873 1.64169991016387939 56.3308486938476562 0 0 0
2.31096220016479492 -2.35863733291625977 56.5346794128417969 0 0 0
-2.5754539966583252 0.877904832363128662 56.0186347961425781 0 0 0
2.49839305877685547 -0.458163470029830933 54.6153106689453125 0 0 0
-5.5838923454284668 3.59972119331359863 57.5237846374511719 145 142 133
4.13618993759155273 0.139804214239120483 56.4308204650878906 0 0 0
-2.28866028785705566 4.45216655731201172 56.8950958251953125 0 0 0
3.44150853157043457 2.22288680076599121 56.0933074951171875 0 0 0
-2.57072329521179199 0.0262914635241031647 57.8975257873535156 0 0 0
4.24762058258056641 0.189601317048072815 55.2071342468261719 0 0 0
2.86557841300964355 -0.553271055221557617 54.72222900390625 0 0 0
7.8450465202331543 0.805634200572967529 57.563262939453125 0 0 0
3.9870295524597168 2.92597007751464844 56.1335372924804688 150 149 145
-2.45911478996276855 -0.949785888195037842 58.0463104248046875 0 0 0
2.24108743667602539 -2.65279960632324219 56.9360313415527344 0 0 0
1.66383278369903564 0.825591504573822021 55.9554328918457031 0 0 0
-0.390498161315917969 1.91884517669677734 57.6968727111816406 0 0 0
3.52271723747253418 -3.12381863594055176 56.0662918090820312 0 0 0
7.37420654296875 0.0341063700616359711 57.4875869750976562 0 0 0
3.20457696914672852 -0.598687350749969482 54.3660240173339844 0 0 0
1.85656368732452393 2.81871867179870605 56.3633689880371094 81 80 79
-2.46751880645751953 -0.937642872333526611 57.8216514587402344 0 0 0
-4.10286998748779297 1.09860312938690186 58.0654106140136719 122 118 115
-0.550198197364807129 1.0875927209854126 54.5335350036621094 20 26 31
-1.50037717819213867 1.20635509490966797 54.2910842895507812 160 182 206
0.103974714875221252 3.17928242683410645 54.9958686828613281 0 0 0
-1.53707563877105713 2.66278624534606934 57.3319778442382812 145 133 133
1.77070283889770508 3.3883364200592041 56.9553756713867188 0 0 0
-0.825926363468170166 3.52754902839660645 53.2377357482910156 143 134 125
-0.0616377517580986023 3.86576056480407715 57.4046707153320312 0 0 0
4.64376020431518555 -1.5665748119354248 55.2431793212890625 160 162 155
-1.54233753681182861 0.36889880895614624 56.22381591796875 90 109 141
-1.44302082061767578 1.19704759120941162 54.9320945739746094 107 131 159
-5.73659896850585938 1.00031113624572754 56.7094917297363281 146 137 128
-2.75354480743408203 2.03350114822387695 57.5665092468261719 0 0 0
-2.72016596794128418 4.56037521362304688 55.9262008666992188 139 139 139
-1.02114701271057129 0.132478088140487671 55.4578819274902344 98 88 79
-2.08903646469116211 0.851684927940368652 56.0690727233886719 0 0 0
-0.41594269871711731 3.10056972503662109 57.2295036315917969 143 141 129
-0.758890867233276367 0.569122970104217529 34.6864089965820312 115 132 156
-1.32691824436187744 0.374424517154693604 53.8100166320800781 128 153 173
-5.09824514389038086 3.98349523544311523 57.9744606018066406 151 142 133
-5.07878398895263672 3.96884894371032715 57.5556755065917969 151 142 133
0.642596721649169922 0.806269645690917969 53.7669563293457031 40 47 55
1.12552058696746826 0.731567502021789551 54.2572517395019531 48 47 53
-3.58877396583557129 4.65712070465087891 57.6069602966308594 144 144 136
-5.17685031890869141 5.07588338851928711 57.8162460327148438 153 145 134
2.2137153148651123 1.77804255485534668 57.9907264709472656 0 0 0
-1.58554136753082275 3.72020173072814941 58.5771980285644531 154 128 107
-1.7520134449005127 0.665579319000244141 54.3813018798828125 67 59 73
1.42263150215148926 2.0965278148651123 56.0153541564941406 132 134 126
-2.09289765357971191 3.97765016555786133 53.5669631958007812 145 140 137
3.83364129066467285 0.377318888902664185 58.1065406799316406 0 0 0
1.75950920581817627 3.34127569198608398 55.7500152587890625 145 148 139
-1.67001628875732422 1.05664122104644775 54.1374778747558594 0 0 0
7.86754989624023438 0.801836013793945312 57.6930198669433594 0 0 0
5.14088964462280273 1.07184171676635742 56.1704902648925781 0 0 0
5.50418710708618164 5.42717075347900391 55.2572441101074219 0 0 0
5.04133081436157227 5.28541231155395508 55.1220512390136719 137 127 110
2.86702299118041992 -0.615257024765014648 55.4622955322265625 124 145 169
1.49489748477935791 2.05797505378723145 55.1277656555175781 143 141 142
7.38728094100952148 -0.401314973831176758 57.5727272033691406 0 0 0
1.92602837085723877 3.1953883171081543 55.7898597717285156 0 0 0
9.349853515625 2.77744102478027344 58.2054328918457031 0 0 0
-6.26096487045288086 2.38223934173583984 53.6285057067871094 0 0 0
8.30190563201904297 3.86652469635009766 60.2150421142578125 146 147 142
8.48420333862304688 -0.0975565239787101746 58.3700141906738281 149 152 145
-1.68558192253112793 1.05304789543151855 54.5202369689941406 59 60 73
