ply
format ascii 1.0
element vertex 664
property float x
property float y
property float z
property uchar red
property uchar green
property uchar blue
end_header
-5.20883607864379883 3.2253570556640625 40.0311279296875 182 169 147
-0.533042788505554199 0.266323983669281006 38.9714622497558594 107 126 141
-0.820758640766143799 0.826626241207122803 39.3099212646484375 113 98 91
-0.244980707764625549 0.392783910036087036 38.9414253234863281 62 66 73
3.10048627853393555 0.354203641414642334 38.3518295288085938 55 44 43
-3.29345464706420898 -1.83230829238891602 39.4098701477050781 153 149 134
3.52422666549682617 0.292682796716690063 38.3007659912109375 97 112 132
0.313256204128265381 0.978176891803741455 39.0369186401367188 186 214 236
0.216994240880012512 1.53945696353912354 39.8615951538085938 118 113 114
-2.31016087532043457 -0.169982627034187317 38.5014915466308594 142 158 180
-1.2629857063293457 -0.206607401371002197 38.5444145202636719 105 118 134
1.74794471263885498 -0.326506853103637695 38.5238761901855469 117 107 83
1.41240394115447998 1.50574684143066406 38.1619491577148438 79 92 108
-1.06453621387481689 -0.0701749622821807861 38.6594200134277344 115 134 158
-1.86712503433227539 0.13523431122303009 38.5755577087402344 169 170 174
1.62523496150970459 3.17929673194885254 39.1633720397949219 180 206 229
1.98852884769439697 -0.383158177137374878 38.5669670104980469 0 0 0
3.5250704288482666 0.401188015937805176 38.2551231384277344 82 83 75
-1.40315747261047363 0.461183339357376099 38.5381011962890625 105 102 103
1.10226929187774658 1.07887518405914307 38.7713584899902344 58 46 34
-0.342849463224411011 1.17707812786102295 39.3379058837890625 129 124 126
3.40682244300842285 -0.344624727964401245 42.1335563659667969 156 158 159
-2.48533964157104492 -0.264468938112258911 38.4979209899902344 209 210 197
1.37057220935821533 1.43084228038787842 39.106353759765625 188 196 202
-2.10015702247619629 0.0168911162763834 38.8026618957519531 133 129 123
-0.613709986209869385 1.04437255859375 39.5366249084472656 148 133 114
1.74588966369628906 -1.05882954597473145 38.3399505615234375 65 59 52
0.110405460000038147 0.573394834995269775 38.5029869079589844 55 53 57
0.674593448638916016 1.81404209136962891 38.8462791442871094 112 104 106
-1.72249710559844971 -0.488442063331604004 38.4579582214355469 143 159 175
1.78427255153656006 -0.297765493392944336 38.7783317565917969 129 112 95
0.695839524269104004 -1.41374528408050537 38.3362312316894531 154 146 132
2.69236326217651367 -0.0656127259135246277 38.3523101806640625 153 180 203
1.34503960609436035 3.6018064022064209 39.1519927978515625 103 118 132
-1.56299030780792236 0.381720095872879028 39.0056724548339844 115 100 89
1.66839408874511719 3.16873288154602051 39.2128944396972656 215 244 255
0.674925506114959717 0.549145758152008057 39.5240669250488281 117 93 65
-3.01284265518188477 1.51619803905487061 39.5264739990234375 163 146 120
1.13500881195068359 1.1623615026473999 39.3117294311523438 90 81 64
0.888382136821746826 3.21549344062805176 39.5048637390136719 144 129 107
-1.009391188621521 0.64327627420425415 38.7571678161621094 182 206 230
1.31558859348297119 1.70098209381103516 37.4460334777832031 215 214 205
-4.87383508682250977 0.680530190467834473 39.4733123779296875 170 160 144
3.53966975212097168 0.233800992369651794 38.1470184326171875 113 118 125
-0.0125009352341294289 -1.6996462345123291 38.1569137573242188 158 145 129
1.5197223424911499 3.43039345741271973 39.1305732727050781 138 156 167
-5.41001462936401367 -1.44064962863922119 38.8949203491210938 165 156 141
3.66176223754882812 0.00969372689723968506 38.4378890991210938 100 110 122
-1.49428486824035645 1.85761845111846924 39.4765701293945312 155 144 126
1.01736748218536377 3.60686230659484863 38.8426094055175781 174 194 205
-1.49803352355957031 1.85837137699127197 39.5470314025878906 155 144 126
2.10425686836242676 -0.234990686178207397 38.2215728759765625 68 72 84
-2.23241043090820312 2.69585180282592773 39.8814811706542969 170 164 150
2.81914448738098145 0.9258689284324646 39.1855850219726562 165 148 130
2.38503789901733398 2.27983927726745605 38.9347305297851562 152 139 120
0.824977457523345947 1.85803115367889404 38.757171630859375 0 0 0
2.39704561233520508 -0.688249826431274414 38.0620307922363281 163 167 173
2.37457084655761719 2.30653500556945801 39.1068382263183594 150 140 122
-4.37865829467773438 2.46760082244873047 39.7007598876953125 175 169 157
-1.43534719944000244 0.434655725955963135 37.7059860229492188 104 96 93
0.640995800495147705 -0.904464602470397949 38.2476425170898438 133 118 99
-4.66642999649047852 0.329983800649642944 39.0112533569335938 173 157 141
2.89761590957641602 1.97152185440063477 39.5815200805664062 157 143 126
-1.90154969692230225 2.67064571380615234 39.8810310363769531 167 158 143
0.372257709503173828 -1.01256656646728516 38.6192169189453125 141 130 112
-0.342726022005081177 0.301315784454345703 38.5919380187988281 78 82 93
1.97193074226379395 -1.71331548690795898 38.4059066772460938 152 144 131
2.2172849178314209 2.17592453956604004 39.5597915649414062 159 146 129
-0.388761281967163086 0.391271770000457764 38.8508224487304688 124 143 166
-1.06734335422515869 -0.0661301389336585999 38.3543205261230469 120 130 137
1.0338590145111084 0.695224583148956299 39.1487388610839844 108 95 77
3.52629685401916504 0.441428571939468384 38.3562355041503906 92 93 93
0.948215007781982422 1.14101505279541016 38.5437278747558594 40 55 64
1.67665958404541016 -0.443888425827026367 38.3421287536621094 233 248 251
1.16788959503173828 3.42099881172180176 39.2018699645996094 231 255 255
2.36489558219909668 2.80701088905334473 39.2176017761230469 148 133 113
1.09278774261474609 3.73102235794067383 39.1684455871582031 161 183 197
1.95964479446411133 -0.41236993670463562 38.3605880737304688 116 137 158
-1.46332633495330811 -0.402961432933807373 38.6138343811035156 40 40 49
3.39894819259643555 0.383159905672073364 38.2650222778320312 161 179 186
-2.44105768203735352 -0.205621883273124695 38.5011024475097656 87 86 66
-0.325590252876281738 -1.43887424468994141 39.4988288879394531 149 136 120
3.5296478271484375 0.357699483633041382 38.3332443237304688 134 144 153
3.53153824806213379 0.352307260036468506 38.343231201171875 134 144 153
0.598604559898376465 0.998604297637939453 38.4935379028320312 122 149 176
1.30612039566040039 1.91754245758056641 38.7691802978515625 72 61 66
1.27697181701660156 3.25382161140441895 39.1143722534179688 190 217 232
1.48151731491088867 3.31586384773254395 39.1090621948242188 145 162 190
1.73962044715881348 -1.00855159759521484 38.3059120178222656 254 251 255
0.221610739827156067 0.536660254001617432 38.8325386047363281 53 45 42
-2.04429340362548828 0.0536926090717315674 39.0113792419433594 122 119 113
1.3653407096862793 3.08675765991210938 39.0988693237304688 168 189 190
-1.90645670890808105 0.0951911807060241699 38.3876686096191406 177 177 178
0.738152205944061279 1.12105071544647217 37.7568817138671875 0 0 0
-1.88726043701171875 0.146516114473342896 38.5086631774902344 117 104 93
3.01880621910095215 0.319030821323394775 38.4034996032714844 43 28 22
1.82966649532318115 0.492792725563049316 38.6566047668457031 147 132 106
1.04306745529174805 1.21021103858947754 39.25128173828125 95 102 108
2.22614741325378418 -0.916068911552429199 39.1583137512207031 119 107 85
1.47672832012176514 3.32230520248413086 39.1963272094726562 216 247 252
1.23152720928192139 3.40536642074584961 39.2227401733398438 197 222 229
1.49314224720001221 3.38199877738952637 39.2247734069824219 235 255 255
1.11747646331787109 2.02382755279541016 38.1845932006835938 0 0 0
0.219729974865913391 1.53460419178009033 39.4766998291015625 116 112 111
-1.85872495174407959 0.0735591575503349304 38.3795013427734375 157 179 195
1.11588501930236816 3.34302401542663574 39.4015769958496094 192 207 204
-0.507520735263824463 0.444825202226638794 39.0419540405273438 175 206 226
-2.3208620548248291 -0.808606982231140137 38.3765945434570312 156 166 175
0.465911269187927246 1.69945001602172852 39.4596633911132812 117 110 110
1.19819843769073486 3.2337806224822998 39.2529106140136719 183 189 192
2.52987504005432129 -0.68081289529800415 38.5586929321289062 121 114 105
0.997793436050415039 1.95855963230133057 36.5956306457519531 82 78 69
1.43648207187652588 3.33918094635009766 38.9298210144042969 154 182 199
1.64585399627685547 -1.2889859676361084 38.3910255432128906 153 137 121
1.64795613288879395 -1.28954339027404785 38.4732933044433594 153 137 121
0.299007326364517212 0.816179096698760986 38.5515937805175781 131 147 169
-0.614596664905548096 -0.0271250251680612564 38.7421493530273438 57 49 44
3.03012299537658691 0.0973044410347938538 38.3917160034179688 157 179 203
-0.0936115235090255737 0.0965170413255691528 39.0553970336914062 72 62 50
0.354631692171096802 0.883173584938049316 38.7230453491210938 121 134 150
0.105939067900180817 1.53907763957977295 38.1389236450195312 128 104 76
-0.601494133472442627 -0.284702867269515991 39.0069541931152344 112 94 70
-0.0086705060675740242 1.90140175819396973 39.4351997375488281 150 126 102
-1.37382757663726807 0.420209318399429321 38.7170219421386719 177 206 222
1.02911829948425293 3.33138036727905273 39.3225440979003906 79 73 59
-0.955697357654571533 -1.65167045593261719 38.7102165222167969 149 139 127
-2.46831560134887695 -0.642545819282531738 38.4075546264648438 101 110 105
6.73213291168212891 3.07060480117797852 38.917022705078125 164 151 134
0.394105970859527588 -1.67916834354400635 38.6187400817871094 152 144 130
-2.53990769386291504 0.0585143566131591797 39.4466094970703125 0 0 0
1.06498312950134277 1.13920950889587402 38.9048614501953125 0 0 0
-3.12904262542724609 0.354007452726364136 39.3461532592773438 159 146 130
1.45232808589935303 3.41148972511291504 39.3083000183105469 213 242 246
-2.83331513404846191 1.21610808372497559 39.4110336303710938 153 140 121
-4.0759735107421875 3.66739892959594727 40.3991813659667969 184 175 157
-3.29345464706420898 -1.83230829238891602 39.4098701477050781 153 149 134
1.25444281101226807 1.75169217586517334 38.1306838989257812 109 119 142
0.606557965278625488 -1.6605079174041748 38.4021759033203125 154 147 137
-0.109856404364109039 1.16826534271240234 36.3151969909667969 175 182 193
0.509850502014160156 -1.55340063571929932 38.8007850646972656 137 124 106
-2.72809195518493652 -0.273034572601318359 38.8577499389648438 151 139 124
0.772156119346618652 2.35615658760070801 39.8470268249511719 142 124 103
1.8772808313369751 -0.409891009330749512 38.2606697082519531 110 122 130
-1.66675543785095215 3.39872312545776367 39.9986572265625 173 161 149
1.40743374824523926 3.1591184139251709 39.1840667724609375 150 167 180
-3.57078313827514648 -1.84134435653686523 38.6165542602539062 163 154 148
-3.39704728126525879 -1.80602645874023438 38.7722816467285156 142 127 108
0.36287391185760498 -1.38802194595336914 38.5028114318847656 154 146 133
2.88136672973632812 0.0988448485732078552 38.2690811157226562 109 125 149
3.26848554611206055 -1.33406317234039307 37.9753150939941406 149 140 125
0.933410704135894775 -0.395844936370849609 39.5058174133300781 140 127 110
1.39819109439849854 1.66891813278198242 38.4327011108398438 250 252 255
-5.62749528884887695 0.235432758927345276 38.6786956787109375 152 137 114
-5.51941967010498047 3.57229161262512207 40.1726493835449219 158 142 118
4.4062952995300293 1.81293630599975586 38.5067100524902344 122 115 101
-4.18369388580322266 3.53870391845703125 40.1438751220703125 156 139 111
-0.337889522314071655 -1.43241715431213379 38.5641975402832031 144 136 125
-2.99485015869140625 1.4416804313659668 40.2619361877441406 158 147 126
3.29366111755371094 -1.10381066799163818 38.1086807250976562 150 137 121
2.79016637802124023 0.167192369699478149 39.7467460632324219 35 29 23
2.80379009246826172 -0.594882369041442871 38.3118667602539062 117 105 81
-5.82506942749023438 2.34892845153808594 39.8228073120117188 159 141 121
1.48057460784912109 3.37814450263977051 39.2665672302246094 217 234 249
-5.78734922409057617 2.3233184814453125 39.5599021911621094 159 141 121
-5.2671046257019043 3.17259407043457031 40.133392333984375 177 167 152
3.69046735763549805 1.07875216007232666 39.2220420837402344 0 0 0
-3.53867316246032715 -1.6401054859161377 37.9877204895019531 158 148 138
0.220848217606544495 2.81922435760498047 40.1058311462402344 0 0 0
-0.148876950144767761 -1.66997897624969482 38.5574722290039062 135 109 92
3.7825767993927002 1.33478665351867676 38.4607276916503906 147 131 115
0.606203317642211914 1.88858270645141602 39.1310310363769531 122 107 76
-5.1287841796875 2.57986998558044434 39.6666145324707031 159 141 121
0.82005774974822998 -0.688457906246185303 38.5343017578125 0 0 0
1.8562849760055542 0.0468291305005550385 38.5403518676757812 133 115 95
3.21886587142944336 -3.07063603401184082 37.3567466735839844 152 149 132
-4.32120609283447266 3.25857424736022949 39.9196968078613281 173 161 145
-1.67423248291015625 -1.71240639686584473 38.7811622619628906 128 113 94
-0.267922163009643555 0.419184476137161255 38.5852508544921875 84 99 119
-1.56802487373352051 -0.665729403495788574 38.6917839050292969 78 69 55
1.07480049133300781 3.36778092384338379 39.3185386657714844 181 194 191
-1.50713169574737549 0.330618917942047119 38.4797515869140625 99 116 124
1.24238753318786621 3.72031855583190918 39.2456092834472656 70 88 98
-1.96570491790771484 0.0721560642123222351 38.3330230712890625 166 175 184
-2.19347596168518066 -0.0749455392360687256 38.9877128601074219 91 97 103
1.20264875888824463 2.05962395668029785 38.9977645874023438 195 190 187
1.17174649238586426 2.07709836959838867 38.5522270202636719 41 34 16
-0.929087340831756592 1.65400850772857666 39.1340675354003906 131 110 89
-2.44017291069030762 -0.598303616046905518 38.4440422058105469 101 114 131
-1.55211436748504639 -0.496757000684738159 38.6318702697753906 23 17 25
-1.41625761985778809 -0.311076760292053223 38.3754806518554688 129 141 153
3.11245441436767578 0.24092528223991394 38.3385200500488281 101 103 115
-4.39869260787963867 1.82523679733276367 40.7498664855957031 161 148 130
1.8242027759552002 0.00686747254803776741 38.8046379089355469 134 119 100
0.0583289526402950287 0.622203588485717773 38.6287422180175781 95 107 123
0.598099589347839355 0.997895181179046631 39.0190963745117188 87 103 120
-1.38113868236541748 -2.13127279281616211 38.4999465942382812 151 145 133
2.31997346878051758 1.90340793132781982 38.8386001586914062 156 141 117
1.41822075843811035 1.53787422180175781 38.0112686157226562 246 244 248
0.733507871627807617 1.05943381786346436 37.7328453063964844 50 56 59
1.42625284194946289 3.4776153564453125 39.17529296875 234 251 254
-1.40636229515075684 0.426868200302124023 38.3779525756835938 184 190 202
-1.31669580936431885 -0.220638737082481384 38.2159996032714844 121 133 149
-5.58614158630371094 2.59245848655700684 39.8820457458496094 181 166 147
-2.08681845664978027 -0.00265738693997263908 38.5926437377929688 169 176 186
4.53468132019042969 1.77139019966125488 39.1396064758300781 143 118 88
-0.72868424654006958 0.881672978401184082 39.1071701049804688 176 188 199
1.87250018119812012 -0.977458775043487549 38.2656936645507812 214 220 234
-2.45572090148925781 -0.525996148586273193 38.2802619934082031 105 121 146
0.493742853403091431 0.915171205997467041 38.4362373352050781 50 66 76
1.01510846614837646 1.20571601390838623 38.6209754943847656 70 84 94
1.4620898962020874 1.44048726558685303 37.9714736938476562 49 44 31
-0.43552631139755249 0.283225834369659424 38.5202102661132812 34 50 65
1.19256222248077393 2.06510162353515625 38.7049789428710938 19 13 1
1.41773009300231934 2.98594141006469727 39.1940689086914062 231 238 232
2.1662604808807373 -0.934554457664489746 38.6101760864257812 132 108 81
0.970786511898040771 3.44751286506652832 39.3917198181152344 60 67 53
1.14504706859588623 3.70361804962158203 39.4788970947265625 132 149 163
2.56638455390930176 -0.116558194160461426 38.3304214477539062 147 174 195
2.95788097381591797 0.190952107310295105 38.3579139709472656 60 70 80
3.12072873115539551 0.358409196138381958 38.4750518798828125 45 38 36
0.616913974285125732 0.952679634094238281 38.7772483825683594 61 61 69
-1.30697107315063477 -0.269378185272216797 37.9976730346679688 48 52 55
1.54904317855834961 3.20623254776000977 39.1055526733398438 184 212 231
1.24438905715942383 3.33477783203125 39.115936279296875 190 211 223
-0.385478973388671875 -0.144877806305885315 39.0257797241210938 121 97 71
-2.34044122695922852 -0.409093856811523438 36.8493156433105469 92 100 103
2.25231528282165527 1.28291213512420654 38.9937362670898438 153 147 135
0.607259273529052734 1.70747125148773193 38.4351234436035156 174 193 210
1.11908173561096191 -0.716337502002716064 38.2597541809082031 0 0 0
0.522683799266815186 0.584671139717102051 38.7432403564453125 61 51 49
-2.63444900512695312 2.48087406158447266 39.7240409851074219 171 159 143
-2.6324620246887207 2.47967886924743652 39.7148933410644531 171 159 143
1.47513294219970703 0.478614658117294312 39.4694862365722656 143 119 95
1.58822214603424072 2.51491928100585938 39.3401832580566406 143 126 108
-0.745234787464141846 0.937471508979797363 39.2690086364746094 120 104 77
-1.6925431489944458 1.92063438892364502 39.5768547058105469 172 157 132
-4.65819931030273438 2.42341899871826172 39.6729927062988281 180 167 148
-1.33390450477600098 2.72782206535339355 39.7784385681152344 167 151 135
-2.22579216957092285 2.68820524215698242 39.847747802734375 172 162 153
-5.21971511840820312 1.23774564266204834 39.7609405517578125 158 137 110
-1.18986058235168457 3.86123514175415039 39.87786865234375 174 157 130
-4.36349344253540039 1.66237986087799072 39.82452392578125 150 132 113
-0.00341865676455199718 0.267195224761962891 38.9153785705566406 46 44 38
0.292015314102172852 0.795497655868530273 38.1430816650390625 70 79 91
-2.74945926666259766 -0.494533747434616089 38.5681877136230469 147 139 126
-2.6061863899230957 -0.378085851669311523 38.4213294982910156 46 45 41
-3.27905797958374023 3.51174330711364746 40.1303443908691406 165 158 145
1.65957736968994141 2.89450311660766602 39.1187171936035156 82 78 59
0.0677329003810882568 0.573457300662994385 39.0303726196289062 62 59 63
2.82022786140441895 1.31893837451934814 38.8657150268554688 66 55 45
-5.59864616394042969 2.59818029403686523 39.99639892578125 173 167 153
2.41637158393859863 -0.75117945671081543 38.7209815979003906 117 108 113
1.57156741619110107 -0.572929918766021729 38.368896484375 84 75 80
2.53222823143005371 4.92841243743896484 39.341949462890625 225 253 255
-2.54395580291748047 -0.404861479997634888 38.4925689697265625 89 98 103
-0.477634042501449585 0.342967867851257324 38.5118598937988281 98 115 137
1.42924618721008301 3.05927467346191406 39.2250556945800781 171 201 210
2.54088902473449707 -0.0623887702822685242 38.461578369140625 110 122 134
0.323859751224517822 0.425460129976272583 39.1015663146972656 100 92 74
1.41224408149719238 1.46040797233581543 37.8279342651367188 165 169 163
0.76584392786026001 1.11536741256713867 38.5251502990722656 74 90 106
1.36627602577209473 3.24238896369934082 39.3690834045410156 196 228 243
0.101842090487480164 0.547823607921600342 37.794036865234375 23 17 17
1.43994712829589844 1.42504918575286865 38.3895301818847656 203 200 193
1.18643677234649658 1.97443902492523193 38.40350341796875 89 96 112
-1.78404629230499268 0.181613162159919739 38.4736251831054688 173 183 189
1.60398626327514648 3.24064493179321289 39.1363334655761719 185 205 214
2.82270216941833496 4.34045982360839844 39.2077064514160156 152 168 191
0.617647886276245117 0.928552985191345215 39.0625572204589844 68 69 74
-0.726217746734619141 0.887443602085113525 38.3613433837890625 106 100 95
0.250249564647674561 1.50135326385498047 39.0977973937988281 179 196 206
0.934099674224853516 3.51655793190002441 39.3417739868164062 178 192 193
1.10144531726837158 2.06367778778076172 38.9162330627441406 255 253 234
0.811561524868011475 1.12754952907562256 38.8974037170410156 62 76 89
1.75886332988739014 3.1001286506652832 39.3009834289550781 211 230 228
1.48377358913421631 1.40363228321075439 39.0721893310546875 100 90 75
1.4626011848449707 1.50487172603607178 38.5797157287597656 155 155 179
3.05106401443481445 -0.428589314222335815 38.4615592956542969 132 110 88
1.05197906494140625 -0.383042961359024048 39.252349853515625 143 132 110
-4.50328826904296875 -0.666245639324188232 38.9747390747070312 162 149 132
-4.37644624710083008 0.951330840587615967 39.6969337463378906 164 150 137
-0.754452526569366455 -1.5961906909942627 39.0518913269042969 133 119 106
5.25732994079589844 0.0641025975346565247 38.9627838134765625 145 115 88
0.0647790133953094482 1.51161491870880127 39.2811470031738281 120 105 82
1.3365638256072998 3.12432646751403809 39.2192230224609375 178 198 205
1.33725392818450928 0.968007445335388184 39.21917724609375 85 72 56
1.45240354537963867 1.42485976219177246 38.9660911560058594 20 21 16
0.561803162097930908 0.882821738719940186 39.0954475402832031 47 45 57
1.12630200386047363 3.72129631042480469 39.478057861328125 141 158 165
1.94783413410186768 -0.949886858463287354 38.2920112609863281 112 114 124
-2.79212427139282227 -1.06413638591766357 38.917938232421875 82 78 73
-2.60131120681762695 -0.284733504056930542 38.6189727783203125 128 117 101
1.45623719692230225 3.49408555030822754 39.2186698913574219 128 148 167
-2.68806672096252441 -0.376940131187438965 38.8879928588867188 80 70 35
0.641198515892028809 0.992443740367889404 38.5316429138183594 82 100 112
3.22662520408630371 -0.458567351102828979 38.5329475402832031 125 104 75
1.7756197452545166 -0.498494833707809448 38.4349517822265625 97 121 137
0.876822292804718018 1.92169249057769775 37.7988853454589844 94 90 84
-2.51392531394958496 -0.541314542293548584 38.4830131530761719 92 91 87
1.81038951873779297 -0.317797064781188965 38.3446197509765625 75 65 54
-0.934859395027160645 -0.499010235071182251 39.1414871215820312 109 92 66
-1.83210551738739014 0.172035440802574158 38.4968719482421875 168 168 176
3.66831278800964355 -0.0231169294565916061 38.2760505676269531 127 120 118
1.11088180541992188 2.00329780578613281 38.3919410705566406 94 90 67
0.893341302871704102 3.58220243453979492 39.3928794860839844 165 178 169
2.15593481063842773 -0.254620879888534546 38.4411506652832031 104 118 131
1.23754775524139404 3.31903862953186035 38.8472747802734375 136 158 161
-2.3164067268371582 -0.170824304223060608 38.548980712890625 147 156 171
0.889494359493255615 1.14783704280853271 39.0202522277832031 58 66 77
-5.38004350662231445 1.96549904346466064 41.0012359619140625 169 157 143
1.44394564628601074 1.61070930957794189 38.2474098205566406 63 60 49
2.00538825988769531 -0.362611651420593262 39.3185348510742188 66 76 89
0.445434451103210449 1.70792436599731445 39.9727821350097656 104 97 87
0.802675426006317139 1.86689770221710205 39.1021232604980469 156 166 177
2.85926270484924316 -0.444893211126327515 38.2368736267089844 176 196 220
0.0490344986319541931 0.151565283536911011 39.1869316101074219 112 96 70
1.46698737144470215 3.1701200008392334 39.1715621948242188 240 255 255
-1.09491646289825439 3.0647130012512207 39.7693405151367188 160 150 135
-1.21349227428436279 -0.151093959808349609 38.4062538146972656 129 152 170
1.46933650970458984 3.26399636268615723 39.3135604858398438 240 255 255
-1.45387566089630127 1.40248215198516846 39.4237060546875 149 133 107
3.85570311546325684 3.29663538932800293 39.3448944091796875 150 137 121
-2.30066514015197754 -0.994238734245300293 38.5116958618164062 0 0 0
-5.50590085983276367 0.476085096597671509 39.3344154357910156 170 162 137
2.45672202110290527 0.0315858460962772369 38.2371902465820312 35 26 19
-1.93113136291503906 0.318212836980819702 39.1998100280761719 132 107 77
1.97126936912536621 -1.71216988563537598 38.4172706604003906 153 143 131
1.23134469985961914 1.24651443958282471 38.5138473510742188 61 64 64
1.49023306369781494 -1.19749188423156738 38.5460433959960938 150 138 124
2.87145256996154785 2.35783600807189941 39.5994071960449219 0 0 0
1.18564450740814209 2.1289525032043457 38.9434471130371094 83 78 67
1.23299205303192139 2.54099535942077637 38.2283821105957031 0 0 0
3.4953765869140625 0.386166602373123169 38.3082809448242188 123 133 136
0.201179221272468567 0.497588455677032471 38.8205642700195312 68 62 60
3.55681943893432617 -0.116071783006191254 38.2880897521972656 97 94 94
-1.14887309074401855 0.787627995014190674 39.3553848266601562 120 102 77
0.974967360496520996 1.99256670475006104 39.0050315856933594 244 246 244
-4.59679746627807617 -0.435057669878005981 39.5336227416992188 163 149 127
-0.150122702121734619 0.385859310626983643 37.6311569213867188 22 20 23
0.202059134840965271 -1.60002517700195312 38.7007637023925781 136 120 97
-1.81540763378143311 -0.555126726627349854 38.5980796813964844 148 161 179
1.60658562183380127 -0.685292482376098633 38.27960205078125 214 218 218
1.60445833206176758 -0.65162348747253418 38.4019966125488281 222 220 228
3.62844324111938477 -0.0814012289047241211 38.2236900329589844 92 85 78
0.0280396025627851486 1.33459818363189697 38.5750160217285156 167 175 184
3.69314932823181152 -0.0233086161315441132 38.2454872131347656 92 85 78
1.29047572612762451 3.18653249740600586 39.1563034057617188 202 221 234
0.792982399463653564 1.08861851692199707 38.5382003784179688 57 75 92
-0.327556997537612915 0.29936140775680542 38.5282173156738281 19 19 19
1.24005746841430664 2.64696621894836426 39.643463134765625 123 108 87
1.39023971557617188 1.58068752288818359 37.7694244384765625 246 254 249
1.12271475791931152 1.12864589691162109 39.0400581359863281 93 81 67
2.28802204132080078 -0.900140166282653809 40.8055915832519531 172 172 184
0.99252784252166748 1.97689700126647949 38.9067459106445312 80 92 103
2.66791725158691406 0.991427481174468994 38.5991935729980469 170 151 134
1.69553005695343018 3.11714839935302734 39.1079444885253906 227 253 255
-1.43939006328582764 1.04900634288787842 39.7633132934570312 151 134 117
1.11204588413238525 3.31704568862915039 39.2866172790527344 203 205 194
-1.29402422904968262 -0.282426983118057251 38.6373252868652344 47 49 64
-4.39803647994995117 3.47722244262695312 40.1800193786621094 178 175 160
2.55341267585754395 -0.0240712538361549377 38.3788642883300781 99 108 116
1.88874828815460205 -0.176805749535560608 39.6115951538085938 135 111 83
1.03211355209350586 1.28193104267120361 39.0261421203613281 103 121 135
-0.153695970773696899 2.31056976318359375 40.0956192016601562 139 127 111
0.477667152881622314 0.596676945686340332 38.8891792297363281 47 43 39
1.09484469890594482 2.04516863822937012 39.110137939453125 255 249 232
1.73116683959960938 -1.06269598007202148 38.1479301452636719 81 75 63
-0.0828373730182647705 0.5337868332862854 38.6726226806640625 61 73 85
0.349528342485427856 0.838380992412567139 38.4822463989257812 0 0 0
-0.153334856033325195 0.188559666275978088 38.8546180725097656 55 48 33
0.560702621936798096 1.68731212615966797 38.1475296020507812 0 0 0
1.54682767391204834 3.26343870162963867 39.2133026123046875 162 186 196
-3.04642319679260254 -2.14526700973510742 39.2011375427246094 127 120 102
-0.923793137073516846 -0.0263173040002584457 38.2479171752929688 36 37 50
3.19109129905700684 0.426012307405471802 38.5786323547363281 122 104 84
1.45868766307830811 1.97252309322357178 39.1122665405273438 129 120 103
1.20976698398590088 1.21158456802368164 38.5832252502441406 99 83 67
2.85224556922912598 0.906021595001220703 38.6332588195800781 151 133 113
-3.36018872261047363 3.41754508018493652 40.1290550231933594 175 163 142
-2.02415800094604492 -2.14089465141296387 38.7115058898925781 152 145 137
-2.51053261756896973 -2.16450929641723633 39.1890754699707031 157 149 138
-0.315776646137237549 0.336196959018707275 38.7518424987792969 71 79 87
0.641088187694549561 2.40299606323242188 39.4845237731933594 130 106 82
3.63929104804992676 1.304862380027771 37.7804374694824219 141 129 115
2.16907334327697754 -1.79374051094055176 38.0202865600585938 138 122 106
1.42512595653533936 1.46389305591583252 39.1173667907714844 0 0 0
2.30440378189086914 -1.9687265157699585 37.96307373046875 161 148 133
-1.16284990310668945 1.184700608253479 39.36669921875 142 124 102
1.01572716236114502 -0.690726399421691895 39.5435867309570312 147 132 118
-2.52267026901245117 0.0511855818331241608 39.762420654296875 156 139 121
-0.782179474830627441 -1.90049195289611816 38.7234573364257812 153 144 139
-4.3818817138671875 0.957323253154754639 39.7163352966308594 164 150 137
1.0293046236038208 -1.95588552951812744 38.2417106628417969 140 125 102
-3.58015799522399902 -1.69825553894042969 38.6974372863769531 158 148 136
1.54728341102600098 -0.513698875904083252 38.3525352478027344 0 0 0
1.32417714595794678 3.08120083808898926 39.205718994140625 170 181 171
-1.57117557525634766 -0.634101688861846924 38.63018798828125 54 44 34
2.30212020874023438 -0.0157427936792373657 38.1596107482910156 142 126 110
2.22160696983337402 2.15768861770629883 39.14398193359375 129 121 108
0.99874722957611084 1.89304304122924805 37.6954193115234375 129 146 164
0.266094833612442017 0.771787405014038086 38.5459785461425781 50 61 76
1.19947147369384766 3.13842391967773438 38.744293212890625 67 71 65
1.844207763671875 -0.969564974308013916 38.1111106872558594 118 128 140
-2.02191734313964844 -0.77344512939453125 38.3051300048828125 248 252 253
-0.802812397480010986 0.0807974487543106079 38.5776748657226562 106 122 138
-1.16690528392791748 0.604611217975616455 37.9372367858886719 115 106 101
2.94272589683532715 0.128662422299385071 39.0332260131835938 103 110 126
-0.495903640985488892 1.02179574966430664 39.0884513854980469 169 182 191
0.942284345626831055 1.22505271434783936 38.0008201599121094 105 121 135
-0.0544299818575382233 1.2984926700592041 38.9704093933105469 185 198 211
1.04091870784759521 1.1320725679397583 37.8623847961425781 75 65 64
1.46631979942321777 1.65203857421875 39.1387100219726562 233 233 231
1.06811165809631348 2.0121467113494873 39.0151519775390625 91 88 100
-1.38995921611785889 -2.12382149696350098 39.7398490905761719 151 141 139
0.15946979820728302 0.702566027641296387 38.6811752319335938 115 125 141
1.54980576038360596 3.01319241523742676 39.1634864807128906 149 177 192
0.134119823575019836 1.43271708488464355 38.9800758361816406 188 197 213
1.65536606311798096 -0.764623939990997314 38.2426948547363281 112 127 146
0.515776455402374268 1.70292878150939941 39.7497138977050781 122 113 106
0.818010032176971436 1.00663101673126221 43.1623420715332031 51 52 58
1.5651695728302002 -0.838655531406402588 38.3759040832519531 116 100 84
1.07683324813842773 1.97499775886535645 38.7318611145019531 95 105 122
-5.73805379867553711 1.21158123016357422 39.4972610473632812 176 161 141
0.873150646686553955 1.12902224063873291 38.1388168334960938 89 101 105
0.357249706983566284 -1.37226772308349609 38.3627357482910156 157 144 127
-3.73060846328735352 -1.19858121871948242 39.2394371032714844 159 147 133
0.486805498600006104 -2.03211450576782227 38.7132492065429688 139 122 103
1.65973043441772461 -1.02460575103759766 41.2459068298339844 0 0 0
-0.295033037662506104 -1.34204471111297607 39.6266403198242188 146 140 128
0.353559255599975586 -0.974779248237609863 38.7426528930664062 136 124 98
0.450067996978759766 0.912872493267059326 39.0258522033691406 114 130 145
-2.52196598052978516 -0.318970829248428345 38.4692344665527344 44 62 82
0.314432978630065918 0.973730325698852539 39.0191535949707031 182 212 236
1.17052590847015381 -1.61403858661651611 38.3508224487304688 157 149 136
-2.50890374183654785 0.0465868562459945679 39.1295700073242188 127 116 99
1.52060997486114502 3.24811124801635742 39.2043304443359375 109 130 145
-4.58368349075317383 -0.433060318231582642 39.43408203125 165 152 134
-2.03978085517883301 -0.756388485431671143 38.2182502746582031 122 134 155
-1.89365839958190918 -1.26769018173217773 39.6211929321289062 141 128 107
-1.67674875259399414 0.259888887405395508 38.4683837890625 178 185 195
1.25673997402191162 0.963812291622161865 39.4438858032226562 119 100 80
-1.57324039936065674 -0.452679544687271118 38.5273246765136719 63 64 75
1.80381357669830322 -0.451942294836044312 38.3012847900390625 210 230 242
0.529910504817962646 0.702500760555267334 38.7263679504394531 93 83 73
-3.13535046577453613 2.64889335632324219 39.5790290832519531 168 160 146
1.51699638366699219 3.29808640480041504 39.2379570007324219 172 192 199
-0.922755300998687744 0.777234256267547607 38.861236572265625 0 0 0
1.48256456851959229 1.57278871536254883 39.0966072082519531 0 0 0
1.02633988857269287 1.35869097709655762 38.9867362976074219 174 201 218
0.773030102252960205 1.75616097450256348 38.6840782165527344 178 204 222
0.799029111862182617 1.82386815547943115 38.4421195983886719 144 167 193
-0.029860571026802063 0.384444773197174072 39.2142333984375 0 0 0
3.62840104103088379 -1.79545271396636963 37.7230377197265625 156 140 119
3.44227075576782227 0.346895813941955566 38.3723220825195312 94 115 131
-3.71195030212402344 -1.56051957607269287 39.0240859985351562 160 148 134
2.02521514892578125 -1.69573462009429932 39.0970382690429688 156 145 127
-3.71195030212402344 -1.56051957607269287 39.0240859985351562 160 148 134
3.35429573059082031 -1.82207274436950684 37.9057655334472656 158 143 122
-3.94955253601074219 0.569856166839599609 39.3137245178222656 0 0 0
1.66603493690490723 2.88822698593139648 39.1451873779296875 73 85 84
1.68184936046600342 -0.950518429279327393 38.3070220947265625 112 99 107
-4.34517431259155273 2.12969112396240234 39.8438491821289062 173 161 137
0.566410839557647705 0.290737420320510864 40.2673606872558594 0 0 0
-0.784534931182861328 -0.0798493847250938416 38.6401939392089844 64 54 52
1.73683559894561768 2.95258498191833496 39.14276123046875 79 81 70
1.04226195812225342 1.92816507816314697 38.6157112121582031 86 99 114
1.16280937194824219 -0.440161228179931641 38.876678466796875 121 107 83
-2.47222232818603516 -0.595186173915863037 38.4593963623046875 211 222 231
-0.87159198522567749 0.000758332316763699055 38.5552940368652344 38 49 64
-4.09523916244506836 -0.29784780740737915 39.0130195617675781 161 149 135
0.85461115837097168 3.63384580612182617 39.2169914245605469 0 0 0
3.90205478668212891 1.88415360450744629 39.3489608764648438 67 61 54
1.45038044452667236 -0.39883992075920105 38.5305442810058594 55 50 44
-2.45482277870178223 -0.571194231510162354 38.4194374084472656 101 115 132
-1.47894895076751709 -0.498041391372680664 38.7583503723144531 24 18 20
-0.836833655834197998 0.029179813340306282 38.2381210327148438 46 56 65
3.69571042060852051 0.0698923096060752869 38.5838203430175781 99 94 84
-0.326011866331100464 0.360413491725921631 38.5648841857910156 99 109 121
2.86467218399047852 0.277823865413665771 38.3449440002441406 121 106 87
-0.673431813716888428 0.47684633731842041 38.8367652893066406 203 234 253
-0.210694178938865662 0.0256403964012861252 39.7459983825683594 80 68 59
0.598721325397491455 1.00425410270690918 38.5870628356933594 129 145 162
-0.296392977237701416 1.16565108299255371 45.87481689453125 124 114 105
-0.923623442649841309 0.864681601524353027 40.1190147399902344 104 92 96
0.0650843307375907898 1.41557943820953369 38.4627113342285156 150 133 123
1.51514983177185059 1.49247395992279053 39.3995475769042969 160 156 164
2.39180827140808105 1.2245556116104126 38.9619827270507812 137 114 90
1.60071372985839844 -0.391029149293899536 38.4280471801757812 112 97 78
-1.40237033367156982 -0.318684518337249756 38.4524993896484375 105 115 125
2.55037164688110352 -0.0476989857852458954 38.4503288269042969 99 108 111
-0.46259656548500061 1.05894458293914795 52.5248794555664062 121 112 109
-1.80039417743682861 -1.06323611736297607 39.5575180053710938 138 120 90
-0.281992018222808838 1.14954996109008789 39.0586357116699219 183 189 205
1.01296532154083252 1.16403365135192871 39.0080108642578125 0 0 0
-0.094819195568561554 1.28352272510528564 39.0267677307128906 181 197 209
0.8436623215675354 2.97312331199645996 39.6916770935058594 138 117 94
0.38087812066078186 1.58550000190734863 39.0713272094726562 194 199 215
0.811774075031280518 1.83805060386657715 38.2713508605957031 161 170 179
-2.21938753128051758 -0.100328773260116577 38.6641845703125 149 159 171
2.98135614395141602 0.351718336343765259 37.9788322448730469 115 100 68
-1.09468448162078857 3.07640361785888672 39.7741546630859375 133 122 106
0.204898267984390259 0.701313793659210205 38.1106758117675781 45 48 53
0.118993133306503296 1.47652280330657959 39.3145675659179688 0 0 0
1.25692868232727051 1.71764886379241943 37.6423301696777344 137 145 156
-1.11987400054931641 0.46671941876411438 34.9025688171386719 172 188 203
1.61158394813537598 2.9150841236114502 39.3281440734863281 144 159 160
-2.85779833793640137 1.24618959426879883 39.6390304565429688 162 145 126
1.50530779361724854 1.55621612071990967 38.6131515502929688 64 55 49
2.34952640533447266 2.2482304573059082 38.6261215209960938 0 0 0
1.42114150524139404 3.45541167259216309 38.9665107727050781 241 254 254
3.86958217620849609 -1.06358027458190918 37.5104217529296875 153 131 107
1.48732876777648926 1.58935236930847168 38.4415054321289062 0 0 0
0.0618895441293716431 -0.906181514263153076 40.2901077270507812 150 138 124
-1.89171707630157471 -0.827072799205780029 38.130157470703125 0 0 0
-2.87965750694274902 0.353174865245819092 39.8829269409179688 154 139 120
2.86591625213623047 1.34999990463256836 38.9043655395507812 137 116 87
3.2352607250213623 1.92982184886932373 39.5320205688476562 114 103 90
3.61125040054321289 0.222832024097442627 38.3284034729003906 64 57 62
-0.499350607395172119 0.276979565620422363 38.1526527404785156 0 0 0
-2.08107805252075195 -0.793839395046234131 38.3820228576660156 84 101 120
-1.88888168334960938 0.151889920234680176 37.8923912048339844 128 122 120
1.0139240026473999 1.3365398645401001 38.5265388488769531 164 198 220
1.60074567794799805 3.2957148551940918 38.7646293640136719 124 142 156
-2.37291836738586426 -0.778934597969055176 38.4181709289550781 82 78 84
-1.05302274227142334 -0.580330729484558105 39.5920600891113281 123 103 76
0.540259718894958496 0.994075238704681396 38.5971107482910156 136 154 176
3.63864421844482422 0.0128394570201635361 38.3276557922363281 78 88 109
1.93352234363555908 -1.05084192752838135 39.0028610229492188 126 116 99
1.69543612003326416 -0.925960659980773926 38.4376869201660156 191 192 194
1.54582774639129639 -0.544909298419952393 38.1745529174804688 117 104 88
-1.34837853908538818 -0.313921093940734863 39.0468978881835938 44 49 53
3.66741132736206055 -0.0453913398087024689 38.3034706115722656 83 73 64
-1.43196678161621094 0.451071083545684814 39.5260047912597656 178 177 190
0.363870859146118164 0.811747908592224121 38.6817474365234375 58 58 66
1.22619366645812988 2.09247922897338867 38.6173248291015625 125 111 88
-1.25624525547027588 0.593829095363616943 40.3664016723632812 89 88 87
2.60801339149475098 -0.00704108318313956261 38.3239555358886719 60 68 77
1.90247476100921631 1.47310125827789307 38.7209358215332031 143 131 109
-1.29860520362854004 0.559593617916107178 40.0140419006347656 100 90 85
1.7540590763092041 -0.468931317329406738 38.3412017822265625 190 211 224
1.32729744911193848 3.18431472778320312 39.2835769653320312 156 174 186
1.32992565631866455 3.18772411346435547 39.4227294921875 156 174 186
1.55302965641021729 3.35191702842712402 39.3553581237792969 234 255 255
0.897777438163757324 3.67307424545288086 39.4046592712402344 129 142 150
1.15394735336303711 3.57772684097290039 39.3624458312988281 144 166 182
-0.827702462673187256 -0.0467449761927127838 38.2405548095703125 27 23 22
1.15006601810455322 3.78387117385864258 39.29705810546875 225 243 242
-0.614866256713867188 0.0531637035310268402 38.3153266906738281 65 54 52
3.11869549751281738 0.242832362651824951 38.3017845153808594 107 117 126
0.531400620937347412 0.950198650360107422 38.7201614379882812 109 120 134
0.658829689025878906 1.74476659297943115 38.1664352416992188 178 185 199
1.03800463676452637 1.20149779319763184 37.8045196533203125 105 112 120
1.39028966426849365 3.19998478889465332 39.3151741027832031 234 255 255
1.11965906620025635 3.69068145751953125 39.5211029052734375 175 192 211
2.55851221084594727 1.0663609504699707 38.6015510559082031 163 149 123
0.697159171104431152 1.81323468685150146 38.8944053649902344 164 180 200
1.3635944128036499 3.36867332458496094 39.4405441284179688 166 187 214
1.00344061851501465 3.80036163330078125 39.5670852661132812 116 139 146
-0.684532880783081055 -0.165372282266616821 38.7875442504882812 97 93 90
3.31839799880981445 0.499766707420349121 38.9900283813476562 139 116 90
1.47656750679016113 3.32308149337768555 39.3364753723144531 145 162 190
4.75546884536743164 1.68364560604095459 38.5177764892578125 159 138 111
7.29079547454603016e-05 0.173904389142990112 39.1508674621582031 74 60 44
2.0511627197265625 2.17820072174072266 39.2687225341796875 160 134 119
2.11431741714477539 -0.0939357802271842957 39.13995361328125 119 104 81
1.58260619640350342 2.51859140396118164 39.4333457946777344 148 126 103
4.99547338485717773 3.00355696678161621 39.2844314575195312 172 155 132
-1.46454882621765137 -0.34460487961769104 38.4535369873046875 71 84 102
3.85130596160888672 3.29407143592834473 39.3310890197753906 165 150 127
1.2851402759552002 1.89145112037658691 38.5029067993164062 233 239 248
3.37197375297546387 -0.763413965702056885 38.3957939147949219 154 130 108
4.48965883255004883 0.878730654716491699 38.4636955261230469 165 145 119
0.802098870277404785 1.89942669868469238 39.582916259765625 106 105 106
1.64518833160400391 1.72747528553009033 39.317230224609375 135 112 94
0.541614115238189697 1.66565942764282227 38.8279914855957031 174 185 200
3.45609855651855469 2.09058165550231934 38.7248382568359375 157 142 121
-0.172386467456817627 2.24715542793273926 39.3827743530273438 0 0 0
0.814536452293395996 2.92881298065185547 39.3871688842773438 135 113 89
0.110971748828887939 1.42440783977508545 38.6876487731933594 104 103 100
5.16781806945800781 3.12970733642578125 38.7785263061523438 159 152 127
3.46332740783691406 1.04751384258270264 38.9138450622558594 158 144 128
-0.257992774248123169 0.406826823949813843 38.8938064575195312 36 51 71
4.58773612976074219 2.4288945198059082 39.2922821044921875 160 145 119
0.803201377391815186 0.921903908252716064 38.3198394775390625 61 48 38
0.902695119380950928 -0.764019489288330078 39.1036224365234375 0 0 0
5.24181222915649414 0.0646267533302307129 38.9769058227539062 143 116 86
5.25741481781005859 0.0628854483366012573 38.9908180236816406 143 116 86
2.83356738090515137 4.74917078018188477 39.0745620727539062 54 66 82
5.24239730834960938 2.2702479362487793 39.0327415466308594 142 118 90
3.24099254608154297 3.38744115829467773 38.879608154296875 0 0 0
4.36720371246337891 3.38764715194702148 38.7156791687011719 146 122 94
1.2605055570602417 3.59031033515930176 39.2577667236328125 145 169 181
-0.777598440647125244 3.64701700210571289 39.71697998046875 154 128 94
5.42521476745605469 2.96937751770019531 39.2962684631347656 141 117 89
-1.10031986236572266 0.675687909126281738 39.362579345703125 116 110 110
1.92224037647247314 -0.953679502010345459 38.3711051940917969 211 217 229
2.94805312156677246 -1.06862270832061768 38.0258064270019531 150 138 116
2.83122777938842773 0.106813184916973114 38.375518798828125 58 68 81
-2.61994457244873047 -0.315211653709411621 38.4507369995117188 132 119 102
0.554651618003845215 0.976133525371551514 37.8536186218261719 127 149 173
-1.56131553649902344 -0.477801322937011719 38.4388504028320312 58 59 71
1.3498237133026123 1.87063097953796387 38.9912338256835938 76 62 62
0.436221778392791748 0.910537242889404297 37.7613105773925781 114 123 133
0.892837584018707275 1.17214739322662354 38.5523834228515625 134 154 178
1.21978759765625 3.6024162769317627 39.2912406921386719 235 253 255
1.23703908920288086 1.2253493070602417 38.6469802856445312 89 84 83
0.569362938404083252 0.994412779808044434 38.4506454467773438 0 0 0
-3.90416169166564941 2.53505825996398926 39.6889572143554688 0 0 0
1.37169265747070312 3.58623695373535156 39.44683837890625 239 255 255
-2.47777056694030762 -0.61596912145614624 38.5564384460449219 120 109 110
4.75275039672851562 2.29646062850952148 38.7470741271972656 166 154 126
1.07190704345703125 1.25504231452941895 38.5669708251953125 116 138 162
2.3608543872833252 4.79380607604980469 39.2471237182617188 166 184 194
-0.134307220578193665 0.0236339438706636429 39.5818595886230469 128 112 87
2.63691377639770508 -0.0319725982844829559 38.5421600341796875 114 128 141
-1.31977307796478271 0.569441020488739014 38.9912338256835938 122 99 81
-0.425894320011138916 -1.28026187419891357 38.8669624328613281 0 0 0
3.19081926345825195 1.92110347747802734 38.9254341125488281 153 139 121
1.73545372486114502 2.98713946342468262 39.1430778503417969 176 187 182
-4.16753721237182617 -0.289537310600280762 39.4276466369628906 151 144 136
1.20006024837493896 -0.411373019218444824 38.9596366882324219 130 107 82
-3.19846987724304199 3.96985483169555664 40.362640380859375 175 167 155
0.767232120037078857 1.10715734958648682 38.6489830017089844 138 158 180
-5.16603374481201172 2.16205215454101562 39.7314987182617188 153 146 128
-1.70097088813781738 -0.503817975521087646 38.3103179931640625 73 94 113
0.973846554756164551 1.87685787677764893 38.1999320983886719 125 150 180
2.24819684028625488 1.17149698734283447 39.5937156677246094 138 112 89
-2.22751092910766602 -0.106282539665699005 38.4388694763183594 150 160 174
-0.638207614421844482 0.0495723150670528412 38.2741012573242188 22 21 26
-2.0971977710723877 1.27601909637451172 39.8162727355957031 156 143 127
-0.125106900930404663 0.481024503707885742 38.4523124694824219 36 50 66
1.68260335922241211 -0.539998888969421387 38.6096153259277344 153 180 200
1.51017081737518311 -1.19138157367706299 38.3034706115722656 0 0 0
0.448903709650039673 -0.40272483229637146 39.0331077575683594 0 0 0
3.62143158912658691 3.18782949447631836 38.8286857604980469 139 132 121
-5.79606437683105469 -0.546983838081359863 39.4200973510742188 165 160 156
1.52158010005950928 -0.494347661733627319 38.3218193054199219 99 85 78
-0.349107891321182251 -0.23283812403678894 38.6085433959960938 0 0 0
0.499356836080551147 0.886939108371734619 38.4797477722167969 41 54 77
1.7190546989440918 -0.543879270553588867 38.4857101440429688 209 233 248
1.21627628803253174 2.11569046974182129 38.9512863159179688 103 90 74
1.32383859157562256 1.81513488292694092 38.5237960815429688 120 116 123
1.73195409774780273 -0.416894376277923584 38.3716163635253906 193 213 204
-2.54498410224914551 -0.306831538677215576 38.4456443786621094 122 129 135
1.46042203903198242 1.6204831600189209 39.0436782836914062 240 239 249
0.816647529602050781 1.50326716899871826 38.6358299255371094 92 110 122
-5.75815200805664062 1.21068680286407471 39.6480865478515625 169 159 146
-2.44655227661132812 -0.259037703275680542 38.5752601623535156 88 98 109
-1.41219925880432129 -0.340941011905670166 38.5794105529785156 52 63 68
1.94804763793945312 1.51108884811401367 39.022705078125 150 140 130
3.26789474487304688 0.417705923318862915 38.3003692626953125 46 52 43
0.602885663509368896 0.969036102294921875 37.9588050842285156 52 61 65
0.609712719917297363 -1.22328448295593262 38.4347763061523438 159 149 139
1.25779616832733154 1.85974729061126709 38.0010986328125 104 107 114
1.0302356481552124 1.92684686183929443 36.5001945495605469 253 250 250
1.12889432907104492 1.97000372409820557 38.473968505859375 95 95 94
1.45971012115478516 3.43525791168212891 39.0801277160644531 206 221 226
-2.08952784538269043 -0.0118884304538369179 38.4203948974609375 167 169 177
-1.73115301132202148 -2.37296319007873535 38.8909034729003906 147 144 145
1.25937020778656006 3.5205996036529541 39.5469818115234375 174 199 204
2.9425361156463623 1.11808204650878906 38.6196975708007812 154 141 125
2.89949798583984375 0.174217045307159424 38.3659515380859375 36 40 53
1.15489006042480469 3.73615503311157227 39.3957252502441406 235 251 244
1.52237844467163086 3.33633732795715332 39.3978233337402344 206 227 230
