ply
format ascii 1.0
element vertex 658
property float x
property float y
property float z
property uchar red
property uchar green
property uchar blue
end_header
-2.27963542938232422 1.06265676021575928 45.5560264587402344 149 180 193
-2.4674990177154541 1.54917943477630615 45.3309516906738281 115 140 162
-2.29667282104492188 1.51848983764648438 45.7938499450683594 242 255 255
-3.12232398986816406 -0.944321870803833008 44.9015693664550781 161 174 192
-6.00519371032714844 -4.17061376571655273 43.0079002380371094 89 87 81
-9.55117321014404297 -0.587366402149200439 44.0804672241210938 172 161 141
-4.46204280853271484 -3.1603848934173584 43.5615234375 68 55 46
-3.18285679817199707 -0.978365600109100342 44.7565231323242188 161 173 187
-0.453575760126113892 2.51350879669189453 45.8257980346679688 147 168 179
-2.05009293556213379 1.0249096155166626 45.4628334045410156 162 186 196
-0.261415213346481323 2.6680147647857666 46.0849685668945312 104 106 111
-0.725576639175415039 2.80078506469726562 46.0084152221679688 153 172 188
-0.51060253381729126 3.02182340621948242 45.769378662109375 119 114 108
-5.50746679306030273 -1.27136003971099854 44.770050048828125 146 131 108
-7.40416097640991211 -2.83705258369445801 43.5349807739257812 159 149 136
-3.20744729042053223 -1.0106964111328125 44.69635009765625 170 188 205
-4.48828315734863281 0.77539360523223877 45.3634757995605469 159 147 133
-5.80383729934692383 -1.82059228420257568 44.21295166015625 141 129 109
-0.401452898979187012 -3.24060988426208496 44.0134506225585938 95 105 115
-2.24375629425048828 -4.05675792694091797 43.9117012023925781 123 108 82
-5.80352354049682617 -1.81719386577606201 44.1975212097167969 141 129 109
-6.94108200073242188 -1.04225850105285645 44.4975776672363281 163 147 124
-4.89812946319580078 -1.16568589210510254 44.7523918151855469 138 123 100
-2.22427654266357422 -0.881912767887115479 45.1655464172363281 128 117 99
-2.91133379936218262 0.617320060729980469 45.40350341796875 129 112 89
-2.90185046195983887 0.647260069847106934 45.6642265319824219 129 112 89
-5.4102625846862793 -4.35794878005981445 43.6472396850585938 135 113 90
-8.86833572387695312 0.859699666500091553 45.0465278625488281 181 169 153
-2.12690162658691406 0.750216484069824219 45.43377685546875 149 171 192
-8.54419517517089844 1.00016152858734131 45.1686439514160156 181 173 158
-8.54553699493408203 1.00009334087371826 45.1626472473144531 181 173 158
-1.70192718505859375 -3.9689633846282959 43.8224563598632812 104 118 131
-5.04016637802124023 2.1747739315032959 46.0035247802734375 172 155 131
-0.546147823333740234 -5.30866909027099609 43.6759719848632812 151 138 117
-4.52899837493896484 -4.79988431930541992 43.0967292785644531 147 133 124
-5.98563098907470703 2.65746808052062988 46.1520271301269531 165 152 135
-5.46411514282226562 -4.07907199859619141 43.1983299255371094 71 60 45
-4.71872472763061523 -3.04759335517883301 42.9915084838867188 112 125 141
-4.31670808792114258 -5.64934825897216797 43.0881080627441406 134 112 90
-7.36458873748779297 -3.75405430793762207 42.9578056335449219 154 146 133
0.797294139862060547 -3.56012105941772461 44.1701583862304688 155 138 122
-3.0919032096862793 2.09812164306640625 45.8781776428222656 154 143 119
-7.92221927642822266 -5.26913022994995117 42.5481071472167969 158 148 136
-5.61470413208007812 -0.750731527805328369 44.8871879577636719 140 118 95
-7.02748394012451172 -0.431617408990859985 44.776885986328125 169 156 138
-6.73902034759521484 -3.4836888313293457 42.8782157897949219 82 70 66
-6.73081684112548828 -3.05758571624755859 43.9229393005371094 144 131 114
-8.43291473388671875 0.31696590781211853 44.4142494201660156 158 146 128
-5.88705682754516602 0.519559144973754883 45.3660049438476562 164 155 143
-5.88636016845703125 0.517463743686676025 45.3743362426757812 164 155 143
-8.25336742401123047 0.761133193969726562 45.0032272338867188 153 140 123
-8.04478263854980469 -0.45792388916015625 44.546661376953125 172 161 143
-4.18343830108642578 1.2613985538482666 45.7131271362304688 163 151 136
-3.57186031341552734 -4.06499290466308594 43.9182052612304688 139 130 113
-5.30738544464111328 1.58490586280822754 45.7516670227050781 166 158 138
-2.45522451400756836 1.51646149158477783 45.3980903625488281 126 148 170
-7.81087398529052734 -2.38110971450805664 43.6908302307128906 141 129 105
-6.90036869049072266 -6.08132266998291016 43.1327133178710938 157 149 138
-6.60305166244506836 1.99963533878326416 45.8612060546875 173 163 151
-3.10309195518493652 2.13441061973571777 46.0547866821289062 154 142 119
-8.76913833618164062 2.54715895652770996 45.7232322692871094 185 175 165
-8.07410430908203125 -5.97416830062866211 45.0319061279296875 151 141 131
-6.38375711441040039 -6.09920883178710938 42.9520835876464844 152 145 137
-7.77470970153808594 -4.78103113174438477 42.181243896484375 142 128 101
-3.25142645835876465 -4.35511875152587891 43.3855209350585938 145 134 116
-5.61061334609985352 -3.80039453506469727 42.7208518981933594 23 17 25
-8.44081401824951172 -2.86960196495056152 42.61224365234375 146 130 114
-2.32299375534057617 0.794513046741485596 45.4858894348144531 167 178 158
-7.02005672454833984 -2.54998946189880371 43.71514892578125 147 137 125
-7.9777522087097168 -1.41505670547485352 43.9568710327148438 148 130 108
-6.1495509147644043 -3.01378369331359863 43.5730628967285156 115 111 126
-4.79955768585205078 -0.847741842269897461 44.8303718566894531 152 130 116
-2.56263113021850586 -0.579405367374420166 44.6709403991699219 255 253 246
-4.79844808578491211 -0.84770810604095459 44.823699951171875 152 130 116
-0.104598701000213623 -3.3936913013458252 44.0400047302246094 162 162 171
-8.20703601837158203 -0.385928452014923096 44.2721176147460938 169 159 147
-3.76480841636657715 -2.38446044921875 44.3370742797851562 114 129 143
-7.52496194839477539 -0.401221156120300293 44.6192855834960938 149 134 115
-5.32246303558349609 0.561747193336486816 45.7349281311035156 168 153 135
-3.6142575740814209 -2.31923747062683105 44.3633155822753906 46 58 70
-4.07653951644897461 1.06545841693878174 45.6247673034667969 141 126 105
-4.52719306945800781 -2.71081113815307617 44.0284347534179688 176 203 220
-4.97318172454833984 1.44367039203643799 45.7305450439453125 172 157 138
0.552607595920562744 1.75268542766571045 45.6733360290527344 154 135 118
-1.34089887142181396 -0.965807139873504639 45.2565422058105469 147 136 108
-8.72725963592529297 1.75630044937133789 45.5452156066894531 164 149 128
-8.30409622192382812 2.01473784446716309 45.6599197387695312 160 139 115
-8.72314929962158203 -0.0999842286109924316 44.7434539794921875 150 138 112
-8.22600173950195312 2.34732580184936523 45.9648170471191406 179 171 152
-0.595419406890869141 -6.52215003967285156 44.7481842041015625 156 141 124
0.421992510557174683 2.54251337051391602 46.0349845886230469 149 132 114
-8.39554691314697266 -1.6212303638458252 44.1369705200195312 144 132 110
-7.50154542922973633 2.78047466278076172 45.7212982177734375 164 143 122
-6.74833774566650391 -0.56682974100112915 44.9688072204589844 158 154 143
-2.81487035751342773 3.04546856880187988 46.0835914611816406 157 140 119
-2.3163604736328125 -1.03185403347015381 45.1585426330566406 0 0 0
-7.89999961853027344 -4.48870134353637695 42.3300743103027344 162 152 140
-8.34694957733154297 -3.28719997406005859 43.0738945007324219 163 150 141
-5.90947484970092773 0.520003020763397217 45.5113449096679688 167 158 143
-8.13870143890380859 -1.59243786334991455 43.8944549560546875 169 160 145
-1.50124824047088623 0.457652449607849121 45.2479629516601562 140 124 101
-7.34334230422973633 -1.24984931945800781 44.2986183166503906 162 149 130
-9.42735481262207031 0.199115946888923645 44.7662620544433594 160 146 120
-6.87204885482788086 -0.783758759498596191 44.6324043273925781 139 124 101
-4.30695390701293945 -2.82092642784118652 44.0482673645019531 35 43 54
-7.73486614227294922 -0.363307774066925049 44.6899833679199219 169 161 150
-6.20298528671264648 -3.11119580268859863 43.2437973022460938 175 182 190
-8.53384208679199219 0.0744945928454399109 44.7546119689941406 181 175 163
-8.67076301574707031 0.232482388615608215 44.2626495361328125 159 144 123
-2.52536177635192871 1.53046822547912598 45.6082725524902344 179 198 205
-6.89937686920166016 0.888181924819946289 45.3884658813476562 156 140 117
-8.35199546813964844 1.13735520839691162 45.3273887634277344 156 139 119
-7.56292438507080078 2.24629664421081543 46.0637550354003906 156 144 120
-7.56292438507080078 2.24629664421081543 46.0637550354003906 156 144 120
-3.84870266914367676 -2.5030062198638916 43.7968711853027344 30 33 42
-6.18673896789550781 2.38474678993225098 46.152740478515625 153 133 110
-7.72117328643798828 2.68512535095214844 45.6421966552734375 181 170 148
-8.12847137451171875 -4.71677541732788086 41.92291259765625 148 128 108
-6.52959203720092773 -4.95050287246704102 42.4747428894042969 146 134 120
-2.42668509483337402 1.65396678447723389 45.1952781677246094 240 255 255
-8.30277442932128906 -1.20191407203674316 44.0925407409667969 151 130 109
-7.82421970367431641 -1.15354883670806885 44.2615127563476562 166 154 132
-1.95593225955963135 -4.90787220001220703 43.5436363220214844 108 98 100
-3.80527186393737793 -2.70631670951843262 43.8901214599609375 45 42 40
-7.47115039825439453 1.00118362903594971 45.3485069274902344 145 128 110
-7.34949445724487305 1.87439298629760742 45.8451766967773438 169 160 148
-2.00925827026367188 1.12079036235809326 45.5563430786132812 237 255 250
-0.814923286437988281 2.61956167221069336 45.931304931640625 143 163 182
-8.33559226989746094 2.59926772117614746 45.2233390808105469 161 144 121
-2.38328051567077637 -1.1604769229888916 45.0272102355957031 102 103 123
0.905366778373718262 -1.12947022914886475 44.836883544921875 148 133 113
-8.47067928314208984 1.64706003665924072 45.3570289611816406 177 168 151
-2.00287747383117676 1.01829802989959717 45.3772354125976562 179 188 188
-8.76094913482666016 2.63161396980285645 45.3375816345214844 173 164 149
-7.20321130752563477 2.47310709953308105 45.6323661804199219 175 169 157
-7.59233808517456055 1.16609632968902588 45.7541694641113281 152 132 111
-6.62843942642211914 -3.35538411140441895 43.0813713073730469 70 70 53
-2.14389824867248535 -4.20979166030883789 43.5852165222167969 185 207 214
-2.37759685516357422 1.2661823034286499 45.4654426574707031 197 222 229
-3.45955920219421387 -2.59578633308410645 44.129486083984375 52 48 40
-2.22543668746948242 1.40372073650360107 45.7082290649414062 240 255 255
-3.7997891902923584 -2.39278030395507812 43.4629364013671875 114 129 144
-6.503509521484375 -4.24484825134277344 42.7936363220214844 68 71 76
-6.50640535354614258 -4.11072635650634766 42.8931655883789062 79 88 94
-4.4633173942565918 -3.54071807861328125 43.9325942993164062 118 96 71
-6.5838618278503418 -3.9502253532409668 42.8599510192871094 80 92 104
-2.09725332260131836 0.786446154117584229 45.27874755859375 147 169 187
-6.60298633575439453 -3.88216519355773926 42.9011001586914062 97 111 132
-2.0732269287109375 -4.05762195587158203 43.6903800964355469 47 49 45
-0.219542980194091797 -3.89557218551635742 43.7948837280273438 131 145 166
-4.20876502990722656 -3.17185235023498535 43.8517379760742188 65 52 41
-6.78549098968505859 -3.55661225318908691 42.8010444641113281 134 121 104
-6.74588680267333984 -3.52508759498596191 42.936676025390625 164 160 157
-8.66377449035644531 -2.30800724029541016 43.9001388549804688 161 151 137
-6.74670982360839844 -3.53129887580871582 42.9732437133789062 164 160 157
-6.94599056243896484 -3.01278209686279297 43.4992942810058594 151 139 125
-6.66393899917602539 -3.70559287071228027 42.8628768920898438 94 110 125
-8.81507015228271484 -3.79738020896911621 42.9739799499511719 163 150 133
-1.04393386840820312 -3.74420452117919922 45.3280830383300781 108 121 139
-4.2468266487121582 -2.79997515678405762 44.0132713317871094 62 66 73
-0.0849352031946182251 -3.49558115005493164 44.0091209411621094 206 209 216
-6.70670223236083984 -3.46260333061218262 42.9448661804199219 210 212 211
-0.427557945251464844 -3.30605673789978027 44.0725059509277344 74 88 100
-9.37677955627441406 0.787428200244903564 44.9539833068847656 159 141 121
-0.177290290594100952 -3.22288036346435547 44.0876426696777344 216 232 232
-2.57959127426147461 -1.76459205150604248 44.644683837890625 114 121 112
-3.98120975494384766 -2.53650164604187012 43.7444725036621094 111 128 146
-2.37457823753356934 -0.837357163429260254 43.6253128051757812 73 66 70
-3.93212008476257324 -2.54773044586181641 44.1626625061035156 33 48 63
-3.60752058029174805 -2.06142997741699219 44.4257774353027344 180 212 237
-3.53928160667419434 -2.27090334892272949 44.0453376770019531 43 57 70
-3.51379561424255371 -2.29789042472839355 44.2876853942871094 63 71 80
-1.65123403072357178 0.644870162010192871 45.5071144104003906 116 94 66
-3.48779082298278809 -2.1388552188873291 44.2817916870117188 116 137 161
-3.44512534141540527 -2.12681221961975098 40.3968505859375 139 156 178
-1.89759564399719238 -4.05034494400024414 43.8239097595214844 55 62 74
-1.30784010887145996 -3.2861638069152832 44.3159217834472656 0 0 0
-2.96417403221130371 -1.89941000938415527 44.6074104309082031 55 64 73
-2.86159729957580566 -1.71674871444702148 44.6952133178710938 144 167 181
-8.91560077667236328 -1.88688468933105469 43.9564971923828125 160 154 138
-2.61139798164367676 -1.79198276996612549 44.1874732971191406 108 114 110
-7.97191095352172852 -1.41663229465484619 43.9349365234375 146 131 111
-2.83698773384094238 -0.79863274097442627 44.8730239868164062 122 140 146
-2.84787845611572266 -0.736240565776824951 44.746185302734375 73 70 62
-8.54979228973388672 1.48118031024932861 45.3455886840820312 179 173 159
-2.51088714599609375 -1.6503903865814209 44.5545616149902344 93 103 105
-2.79264092445373535 -0.714777350425720215 44.8849105834960938 255 254 252
-0.682912647724151611 -3.40794610977172852 44.0378265380859375 51 60 66
-2.74196815490722656 -0.651451587677001953 44.9801559448242188 77 75 55
-2.585357666015625 -0.706099212169647217 44.3603591918945312 96 102 108
-2.61409091949462891 1.7356637716293335 45.3684616088867188 168 188 199
-9.72018814086914062 -0.230352073907852173 44.4564743041992188 178 173 160
-1.90177500247955322 0.540709912776947021 45.768310546875 77 84 67
-3.57692384719848633 1.75481212139129639 45.7296905517578125 157 145 123
-2.36888790130615234 0.809783875942230225 45.5379180908203125 96 95 95
-5.98591041564941406 -1.68222427368164062 44.5549125671386719 127 113 84
-2.19122505187988281 0.935341477394104004 45.5339202880859375 145 172 189
-4.03383541107177734 -1.50315630435943604 45.9868240356445312 184 196 203
-1.92655181884765625 0.856874823570251465 45.6279258728027344 214 237 243
-2.69945931434631348 1.31524002552032471 45.3948440551757812 53 54 48
-4.11439275741577148 -2.6785590648651123 44.1160659790039062 47 51 61
-2.134918212890625 1.21466600894927979 45.6071243286132812 235 255 255
-2.05914187431335449 1.20398533344268799 45.6313858032226562 113 130 148
-5.20257282257080078 -5.54852581024169922 43.249298095703125 149 139 127
-2.4743659496307373 1.63672006130218506 45.4247055053710938 164 197 214
-1.95522356033325195 0.502707839012145996 45.2329864501953125 77 78 72
-2.44096875190734863 1.83971953392028809 45.5622787475585938 129 146 151
-2.99064207077026367 -4.07280349731445312 44.3902091979980469 150 134 118
-6.58955812454223633 -3.99378490447998047 42.8181800842285156 250 251 255
-3.51059961318969727 -2.10969066619873047 44.3819694519042969 154 180 202
-6.52717924118041992 -3.96574544906616211 42.853302001953125 141 157 188
-5.91372060775756836 -3.86149382591247559 43.00341796875 137 154 167
-5.87806034088134766 -3.97893905639648438 43.1322555541992188 97 100 93
-8.08820056915283203 0.627305924892425537 45.0321769714355469 177 169 158
-6.69714069366455078 -3.75326633453369141 42.8638076782226562 93 87 97
-2.18170166015625 1.46917319297790527 45.2786483764648438 122 144 157
-3.1742093563079834 -5.0264739990234375 43.5090065002441406 137 124 105
-6.67685508728027344 -3.73970699310302734 42.913543701171875 166 178 190
-5.85523891448974609 -3.70467805862426758 43.2674751281738281 174 205 226
-3.38565611839294434 -2.27084922790527344 44.685272216796875 16 11 17
-5.70899343490600586 -3.73590087890625 43.1761741638183594 117 130 146
-1.34727907180786133 -3.54192471504211426 43.6847114562988281 104 88 73
-0.0362512730062007904 -3.59259223937988281 43.9989814758300781 76 76 68
-6.08322238922119141 0.232772216200828552 45.3823585510253906 152 136 120
-0.0464353896677494049 -3.52454781532287598 44.0208053588867188 74 70 67
-4.18351125717163086 -6.19709444046020508 44.3383255004882812 150 137 120
-6.67257404327392578 -3.39691901206970215 42.9820213317871094 87 85 72
-8.84162139892578125 -1.25266313552856445 44.1490592956542969 147 129 107
-0.101488366723060608 -3.4055476188659668 44.0810356140136719 184 191 192
-4.89567232131958008 -2.95271825790405273 43.7982826232910156 182 213 234
-2.00751757621765137 -4.15310239791870117 43.6208038330078125 108 120 132
-3.61777353286743164 -2.6007688045501709 44.2446632385253906 79 70 57
-3.68237709999084473 -2.38335037231445312 44.36114501953125 41 52 64
-4.45129585266113281 -1.84651970863342285 44.4649810791015625 107 102 92
-4.1697540283203125 -1.64459371566772461 44.8724899291992188 115 113 107
-9.12118339538574219 1.29215431213378906 45.4441413879394531 176 168 155
-3.48821520805358887 -1.21232247352600098 44.7458915710449219 198 204 212
-0.131413400173187256 -3.33662819862365723 44.0840568542480469 124 135 139
-3.47417974472045898 -1.12801718711853027 45.3868827819824219 102 95 89
-6.26700067520141602 -4.26398229598999023 42.779083251953125 49 56 38
-2.05270957946777344 0.441880345344543457 45.3872451782226562 207 226 230
-1.92017626762390137 0.557835578918457031 45.3887710571289062 178 189 177
-1.89896202087402344 0.538659393787384033 45.2310256958007812 72 79 61
-2.35460948944091797 1.02763402462005615 45.5785903930664062 195 217 222
1.58995652198791504 -1.05159413814544678 44.8192405700683594 149 134 116
-2.30247282981872559 1.01718628406524658 45.3642845153808594 141 170 188
-2.79033327102661133 -1.69218647480010986 43.9671745300292969 138 169 187
-2.32649946212768555 1.47907125949859619 45.5574150085449219 243 255 255
-2.54791927337646484 1.19899594783782959 46.0178718566894531 202 214 210
-2.23214149475097656 1.10284888744354248 45.3063392639160156 159 191 204
-2.16509723663330078 1.41609406471252441 45.7247200012207031 116 137 141
-2.30472707748413086 1.60125374794006348 45.5761299133300781 125 143 164
-2.21457886695861816 1.48437297344207764 45.6801033020019531 131 149 159
-0.584644615650177002 2.44512701034545898 45.8287620544433594 155 173 185
-0.455027014017105103 2.85788393020629883 46.1688575744628906 158 171 173
-2.28127288818359375 1.04453563690185547 45.1655044555664062 160 188 212
-6.46742630004882812 -3.39096808433532715 42.5976524353027344 130 140 158
-6.59146451950073242 -3.38261222839355469 42.9970817565917969 232 236 223
-4.43025302886962891 -3.02166461944580078 42.4928398132324219 22 20 23
-4.47287368774414062 -2.7691655158996582 44.0890235900878906 150 168 189
-3.73058772087097168 -2.6506505012512207 44.0980644226074219 57 46 44
-5.30323934555053711 -2.4056859016418457 44.4581260681152344 112 99 92
-4.03161430358886719 -2.57862615585327148 44.0904922485351562 98 115 131
-3.34076690673828125 -2.14210939407348633 44.3901634216308594 44 54 66
-3.68883752822875977 -1.30070042610168457 44.8197708129882812 116 112 111
-1.86483156681060791 0.690575838088989258 45.7806320190429688 145 158 148
-0.43150782585144043 -3.31392860412597656 44.1165580749511719 70 84 95
-0.438432097434997559 -3.17765378952026367 44.0228996276855469 75 76 78
-1.85103285312652588 0.734482765197753906 45.4736671447753906 241 255 255
-1.92251884937286377 0.959809541702270508 45.5037307739257812 118 139 142
-2.29649114608764648 1.37748122215270996 45.5506820678710938 132 150 151
-4.0269627571105957 -1.54483997821807861 44.5098037719726562 107 101 93
-2.65492725372314453 1.84469747543334961 45.4274711608886719 195 208 225
-2.44729995727539062 1.68754768371582031 45.5852546691894531 153 178 194
-2.54282069206237793 1.93925046920776367 46.0286674499511719 108 134 149
-5.97298908233642578 -3.02047157287597656 43.4493637084960938 157 179 195
-0.776019036769866943 2.87964963912963867 46.1306381225585938 180 203 211
-0.564331471920013428 2.80098247528076172 46.2150840759277344 158 186 189
-7.01979541778564453 -4.46957254409790039 42.8316192626953125 148 139 124
-2.3411562442779541 1.05593681335449219 45.4492568969726562 190 217 232
-0.447747856378555298 2.89864182472229004 45.7660102844238281 131 131 122
-2.68579959869384766 -0.689877688884735107 43.2301559448242188 245 253 252
-1.80302178859710693 -4.75969505310058594 43.431549072265625 166 176 195
-3.228302001953125 2.49566268920898438 46.1928787231445312 157 141 116
-9.84178733825683594 2.24042606353759766 46.0376358032226562 158 142 118
-3.85817074775695801 -2.62144088745117188 43.7052345275878906 16 15 19
-1.8131096363067627 0.568816661834716797 43.6737747192382812 65 70 63
-7.94239711761474609 2.48406171798706055 45.6281242370605469 156 139 114
-1.95622873306274414 1.06372880935668945 45.6367454528808594 129 146 160
-0.828197181224822998 -1.84896349906921387 44.8312759399414062 139 114 89
-2.57513666152954102 1.22884714603424072 45.6366691589355469 193 207 208
-2.56250739097595215 1.36216425895690918 45.5486488342285156 179 200 201
-7.82958745956420898 -5.12912607192993164 42.0188407897949219 160 151 140
-9.40290260314941406 -4.57330322265625 42.499603271484375 162 154 143
-2.60866427421569824 1.41708672046661377 45.493804931640625 154 173 179
-2.10691118240356445 -5.11262750625610352 44.2636680603027344 122 115 99
-2.55867671966552734 1.49073147773742676 45.5406112670898438 179 199 207
-9.38716793060302734 -5.48732233047485352 42.0356712341308594 164 155 146
-2.09758853912353516 1.16689658164978027 45.5359649658203125 237 255 253
-2.09907054901123047 1.14596724510192871 45.5040855407714844 148 177 191
-4.49889898300170898 -2.82705354690551758 44.0029640197753906 140 161 178
-1.27981448173522949 -3.7295677661895752 43.953521728515625 109 121 134
-3.27942371368408203 -2.71079158782958984 44.4774436950683594 115 91 63
-3.88836765289306641 -1.51778280735015869 44.4984931945800781 171 192 209
-1.99017167091369629 0.717972755432128906 45.5784950256347656 154 176 184
-2.54434370994567871 1.2518770694732666 45.229156494140625 153 176 184
-0.304549068212509155 2.59666061401367188 46.1163177490234375 204 222 226
-0.606790602207183838 2.96370577812194824 45.9538803100585938 180 205 202
-4.86296749114990234 -3.14712429046630859 43.4169769287109375 106 121 141
-0.42553943395614624 2.79201078414916992 46.1204643249511719 180 196 204
-2.39888215065002441 1.51526796817779541 45.5219841003417969 163 188 209
-0.177703514695167542 -3.18361115455627441 44.1116371154785156 188 199 193
-3.0067284107208252 -1.8922494649887085 43.6521568298339844 62 76 89
-4.65852165222167969 -2.06612610816955566 44.16552734375 177 199 218
-4.46545934677124023 -1.26614832878112793 44.8069229125976562 147 125 112
-0.599041402339935303 2.24095034599304199 45.9283638000488281 134 154 168
-0.620998024940490723 2.88831377029418945 46.1449966430664062 244 255 250
-0.648408234119415283 2.84760332107543945 45.8235282897949219 244 255 250
-3.27690839767456055 -4.94145774841308594 42.8232803344726562 155 148 129
-1.86596298217773438 -5.04784822463989258 45.6073837280273438 119 116 111
-3.27690839767456055 -4.94145774841308594 42.8232803344726562 155 148 129
-6.5687708854675293 -4.09495639801025391 42.81500244140625 98 84 83
-3.77665615081787109 -3.07709860801696777 44.0908355712890625 105 84 64
-5.43976831436157227 -2.61234140396118164 43.7538871765136719 176 199 213
-4.88112449645996094 -2.24783015251159668 43.9344367980957031 171 199 213
-2.86385178565979004 -1.70380842685699463 44.6851272583007812 146 172 189
-5.31795835494995117 -3.46832060813903809 40.0962333679199219 105 118 135
-3.20020627975463867 -1.04468262195587158 44.7493247985839844 165 193 207
-3.26110935211181641 0.960404455661773682 45.6130104064941406 155 140 120
-2.55183887481689453 1.13107430934906006 45.4397773742675781 80 76 68
-2.48925018310546875 1.80702567100524902 45.6164436340332031 244 255 255
-2.14708828926086426 -4.26083660125732422 43.6981010437011719 84 106 129
-0.961414754390716553 2.8226015567779541 45.8626213073730469 136 154 171
-1.61714601516723633 -1.69975948333740234 44.4582443237304688 169 154 141
-1.40076851844787598 -2.64470052719116211 44.1567878723144531 145 129 113
-2.89010143280029297 1.09803628921508789 45.4923133850097656 131 108 85
-2.00435566902160645 1.16079318523406982 45.4489517211914062 126 149 159
-7.99283838272094727 -2.4594111442565918 43.6348876953125 169 157 140
-0.272307723760604858 -6.54244327545166016 44.8250274658203125 156 143 122
-7.43920087814331055 -1.9117656946182251 44.0076332092285156 159 146 130
-7.59445714950561523 -5.44534015655517578 42.7325439453125 153 149 134
-4.62087535858154297 -1.86886036396026611 44.6873016357421875 148 133 112
-5.58225393295288086 -1.09975194931030273 44.5267448425292969 131 109 85
-5.58249378204345703 -1.10094618797302246 44.5396347045898438 131 109 85
-5.38250446319580078 -0.554544210433959961 44.966461181640625 139 121 96
-4.90107965469360352 -1.1632239818572998 44.7753868103027344 147 132 111
-1.65046942234039307 -0.730262339115142822 44.919586181640625 147 132 113
-4.96512174606323242 -0.380748778581619263 45.4321327209472656 158 146 120
-8.19739818572998047 2.149566650390625 45.9842300415039062 184 175 157
-4.96512174606323242 -0.380748778581619263 45.4321327209472656 158 146 120
-4.6735692024230957 1.6910940408706665 45.5146636962890625 142 116 91
-5.66454601287841797 0.200364634394645691 45.2473335266113281 168 160 141
-9.01599597930908203 -2.37988543510437012 43.6865425109863281 173 157 141
-2.52417182922363281 -2.21649384498596191 44.6665840148925781 128 109 84
-8.23088836669921875 -0.366625726222991943 44.5728302001953125 166 161 149
-6.92670631408691406 -3.41381645202636719 43.2850418090820312 151 139 124
-4.62191247940063477 1.0783226490020752 45.7332191467285156 163 148 125
-2.75662136077880859 1.73108780384063721 45.7738075256347656 217 230 251
-8.63166522979736328 2.18306970596313477 45.3592071533203125 163 146 126
-2.64253973960876465 -1.75729668140411377 43.1795272827148438 105 108 108
-8.63972663879394531 2.19488167762756348 45.4360084533691406 163 146 126
0.421045392751693726 2.53859519958496094 46.0214805603027344 151 129 118
-8.72683334350585938 1.10753607749938965 45.0062904357910156 159 145 118
-2.64973235130310059 2.77259588241577148 46.1938362121582031 129 104 73
-2.43573951721191406 1.02701663970947266 45.4407272338867188 183 189 192
-7.80157327651977539 -5.0974273681640625 41.72747802734375 161 151 139
-4.91199588775634766 -3.40029549598693848 43.8757896423339844 63 55 53
-2.68847537040710449 -0.677608251571655273 44.8086814880371094 91 88 100
-5.73149013519287109 -3.79880261421203613 43.0120658874511719 28 31 41
-1.2666325569152832 -3.27414345741271973 44.1273918151855469 82 69 54
-4.61817264556884766 -2.96701335906982422 43.4731483459472656 70 83 99
-0.0641220882534980774 -3.5600273609161377 43.9500160217285156 141 151 159
-0.29006233811378479 -3.8953547477722168 43.9059791564941406 164 188 210
-2.78372049331665039 -1.86821675300598145 43.8582344055175781 17 22 26
-0.097186453640460968 -3.3145911693572998 43.9707984924316406 76 78 77
-6.46559953689575195 -4.23398780822753906 42.7192268371582031 186 195 217
-1.55100119113922119 -3.88506937026977539 43.8205604553222656 100 110 121
-2.18676972389221191 -4.07733154296875 44.3204879760742188 119 108 86
-3.05337023735046387 -4.48146247863769531 44.1764335632324219 0 0 0
-4.40146064758300781 -2.78526759147644043 43.5632171630859375 119 137 154
-4.49795675277709961 -1.92004287242889404 44.1114311218261719 162 171 168
-2.16392803192138672 -4.29243040084838867 43.5750083923339844 95 115 132
-2.95478987693786621 -1.85524380207061768 4.6829986572265625 118 114 122
-1.08932840824127197 -3.53149533271789551 44.9316673278808594 44 33 36
-2.07864713668823242 -4.20081138610839844 43.611846923828125 205 221 236
-4.8951573371887207 -3.19934678077697754 43.7043914794921875 59 65 77
-2.24873733520507812 -4.14696836471557617 43.6404647827148438 45 51 51
-4.65049314498901367 -3.18989181518554688 43.3076171875 21 18 21
-6.66556406021118164 -2.1169135570526123 44.1949653625488281 117 105 87
-4.50276088714599609 -2.87740635871887207 44.0081825256347656 92 115 133
-4.24983739852905273 -2.95074892044067383 43.9451942443847656 60 60 55
-3.75244522094726562 -2.70007944107055664 43.5428237915039062 0 0 0
-5.23123693466186523 -3.63300991058349609 43.610107421875 64 54 48
-3.23435282707214355 -2.0745234489440918 43.7646293640136719 36 48 60
-3.69279170036315918 -2.87180495262145996 44.6595039367675781 96 92 80
-2.78542661666870117 1.68376398086547852 45.8951683044433594 191 208 218
-5.53977155685424805 -3.50834083557128906 43.44482421875 163 189 212
-5.15211343765258789 -3.33012557029724121 43.7890548706054688 115 130 149
-3.47122406959533691 -5.67296028137207031 42.7952690124511719 156 147 138
-3.47685050964355469 -1.66069340705871582 3.78541159629821777 168 173 187
-4.26464176177978516 -2.74302339553833008 44.0952072143554688 103 117 131
-2.36697602272033691 -1.25439262390136719 44.7969169616699219 79 85 107
-2.1705327033996582 1.25566780567169189 45.6371116638183594 216 239 247
-4.94170570373535156 -3.2543022632598877 43.7332534790039062 42 53 71
-3.25249767303466797 -2.13530468940734863 44.1331214904785156 61 63 70
-4.53014993667602539 -2.71754789352416992 43.8938674926757812 168 199 219
-2.16431427001953125 0.903124511241912842 45.6713600158691406 199 225 248
-5.38505840301513672 0.716889023780822754 45.2761459350585938 149 133 108
-2.53100800514221191 2.04798293113708496 45.9363632202148438 108 114 126
-2.83491873741149902 -0.758249521255493164 44.4368438720703125 214 233 240
-2.14046406745910645 1.34787166118621826 45.4909210205078125 126 153 163
-2.10411548614501953 1.1819465160369873 45.5897102355957031 201 225 237
-1.23462879657745361 -3.72179508209228516 43.9805412292480469 98 113 124
-9.58971595764160156 -1.28617954254150391 43.606689453125 169 162 146
-3.228302001953125 2.49566268920898438 46.1928787231445312 157 141 116
-8.17469596862792969 -2.13162875175476074 43.6250801086425781 162 153 140
-8.92196846008300781 -0.0778875425457954407 44.8195457458496094 179 163 146
-6.17124271392822266 2.36810708045959473 45.8823966979980469 152 136 111
-4.34403181076049805 -2.8501274585723877 43.9153175354003906 49 63 80
-4.47972536087036133 -3.01467180252075195 43.8912544250488281 58 58 64
-2.18854641914367676 0.56853938102722168 45.4883308410644531 191 207 203
-2.09636402130126953 1.01427042484283447 45.5057601928710938 159 189 200
1.59045088291168213 -1.05975508689880371 44.861907958984375 150 136 123
-1.91833090782165527 -3.87999749183654785 43.7742538452148438 116 101 79
-2.14337301254272461 -4.97979164123535156 43.3478240966796875 217 223 237
-2.19614410400390625 1.02563667297363281 45.4217796325683594 225 253 255
-2.28858828544616699 -4.54633951187133789 43.4594764709472656 97 106 123
-5.26833009719848633 -3.33772015571594238 43.5928459167480469 159 186 208
-0.0723265707492828369 -3.46738004684448242 43.9939308166503906 61 50 59
-0.0833121910691261292 -3.42241024971008301 44.0456809997558594 89 84 83
-0.0272318609058856964 -3.62111282348632812 43.9913139343261719 64 63 61
-1.72729432582855225 -6.46294546127319336 43.5987930297851562 161 148 133
-4.60997343063354492 -2.08129024505615234 37.5943412780761719 99 90 83
-3.95875692367553711 -2.52693033218383789 44.1716728210449219 115 127 143
-3.09654378890991211 -1.97527539730072021 44.4383926391601562 41 50 59
-3.0355989933013916 -1.91116797924041748 44.5664901733398438 57 70 86
-2.81538915634155273 -4.13888359069824219 43.8572731018066406 124 106 78
-2.92350125312805176 -1.84114408493041992 44.6767387390136719 102 116 129
-2.65124750137329102 -1.67084956169128418 42.891815185546875 73 89 102
-2.45376110076904297 -0.989076018333435059 44.9449386596679688 105 113 124
-2.34216094017028809 -1.34090304374694824 44.4446449279785156 98 100 115
-2.47111177444458008 -0.923965513706207275 45.0384979248046875 105 106 130
-2.34696340560913086 -4.47776365280151367 43.4346542358398438 84 69 61
-6.59113502502441406 -3.84813404083251953 42.6603889465332031 216 225 238
-6.21644067764282227 -3.10592198371887207 43.3196983337402344 166 176 179
-2.50905799865722656 1.81585204601287842 45.3412933349609375 188 218 228
-0.826633691787719727 -3.60730862617492676 43.9100990295410156 167 184 212
-0.832509279251098633 -3.56679916381835938 43.9415016174316406 113 129 150
-4.57010841369628906 -2.98045492172241211 43.8417472839355469 52 68 81
-5.08356475830078125 -2.24100780487060547 44.7271156311035156 114 109 108
-2.79021143913269043 -1.73630285263061523 43.3100013732910156 83 101 118
-0.0516642220318317413 -3.88444113731384277 43.9251937866210938 93 87 81
-4.02249383926391602 -1.57667875289916992 44.560516357421875 187 196 203
-3.04207348823547363 -0.892067849636077881 44.6927223205566406 156 167 172
-2.52986001968383789 -0.681896030902862549 44.9331169128417969 161 160 160
-2.81688380241394043 1.64767253398895264 45.7868766784667969 188 191 195
-2.75338983535766602 1.6629101037979126 45.5560150146484375 132 153 172
-0.770715415477752686 -3.59971213340759277 43.933929443359375 165 190 215
-5.62331247329711914 -2.66219806671142578 43.7772750854492188 102 95 102
-2.61470127105712891 -2.15034055709838867 44.8837814331054688 70 58 35
-2.51977682113647461 -1.70892453193664551 44.4141693115234375 76 78 65
-3.59074592590332031 -1.84312534332275391 44.46600341796875 199 230 251
-3.00501322746276855 -0.866600215435028076 44.9453315734863281 157 170 179
-2.81173372268676758 1.71459102630615234 45.74029541015625 89 93 104
-0.92746436595916748 -3.54643630981445312 43.9309921264648438 56 64 75
-3.18927168846130371 -1.9731062650680542 44.4829826354980469 122 139 157
-3.59803318977355957 -2.77017378807067871 43.7006416320800781 91 83 70
-2.46950554847717285 -2.93071675300598145 44.8844451904296875 135 119 93
-2.46875452995300293 -2.93004536628723145 44.8829307556152344 135 119 93
-2.06477618217468262 -5.97467565536499023 43.3957862854003906 154 143 127
-5.05708694458007812 -3.85047292709350586 43.5343894958496094 63 47 34
-1.70670962333679199 -6.22505283355712891 44.7006454467773438 156 144 130
-3.54453301429748535 -2.36392855644226074 44.3770790100097656 50 49 54
-1.70493710041046143 -1.75666320323944092 44.5992851257324219 134 118 95
-8.21896934509277344 -0.278989881277084351 44.5985183715820312 170 158 146
-3.08731389045715332 0.1165475994348526 45.3549575805664062 147 135 111
-5.13838672637939453 1.47427630424499512 45.5561408996582031 150 133 107
-8.54724979400634766 1.94662749767303467 45.7259025573730469 183 176 161
-4.68313455581665039 1.37910604476928711 45.4079818725585938 145 128 98
-2.59202075004577637 -4.25565242767333984 45.1731109619140625 137 124 106
-8.34750747680664062 -0.782681107521057129 44.4266471862792969 168 154 141
-6.64884614944458008 -0.775526940822601318 44.9171180725097656 142 129 106
-4.30460071563720703 -0.332907974720001221 45.1780319213867188 151 140 118
-7.74787521362304688 0.433580577373504639 45.2727813720703125 166 161 142
-6.40535545349121094 -4.44315195083618164 42.9585113525390625 97 82 61
-7.72709846496582031 -5.42558479309082031 42.5210075378417969 139 127 111
-8.31991291046142578 -2.88132691383361816 43.17718505859375 157 150 135
-2.78090524673461914 -1.87250363826751709 44.6891136169433594 31 27 24
-7.92485237121582031 0.0516484715044498444 44.9116592407226562 165 158 143
-3.80410647392272949 -2.53212285041809082 43.4243431091308594 55 53 57
-8.54304981231689453 1.48004031181335449 45.3136062622070312 179 173 159
-1.8424842357635498 -6.18644618988037109 44.0019416809082031 0 0 0
-7.91947031021118164 -4.50840616226196289 42.4613533020019531 161 148 139
-2.81268095970153809 -1.76689243316650391 44.6990203857421875 106 124 146
-5.02730894088745117 -5.14384698867797852 43.3304710388183594 145 136 129
-3.12528324127197266 0.387855827808380127 45.3508682250976562 133 110 87
-6.55479240417480469 -3.34102368354797363 43.0836067199707031 142 142 149
-2.29648447036743164 0.953129589557647705 45.4531822204589844 152 184 204
-2.22575187683105469 -4.17637538909912109 43.6059646606445312 245 253 253
-2.15323066711425781 1.35080623626708984 45.4782257080078125 237 248 254
-0.737001180648803711 -3.43364882469177246 44.034088134765625 96 103 117
-3.3272254467010498 -2.19066023826599121 32.8185348510742188 45 44 49
-3.34589362144470215 -2.04885149002075195 34.1387062072753906 114 128 151
-2.04604411125183105 1.17018091678619385 45.6289024353027344 210 238 240
-6.52670621871948242 -4.2063751220703125 42.8453330993652344 75 77 78
-5.80061626434326172 -3.84898972511291504 43.1867866516113281 57 66 77
-7.33073949813842773 1.7201303243637085 45.2131385803222656 175 163 142
-1.2662651538848877 -3.72989130020141602 43.8952369689941406 99 111 124
-0.0983911082148551941 -3.44501090049743652 44.03973388671875 163 170 175
-4.56179380416870117 -2.94114279747009277 43.85638427734375 107 126 141
-0.604476630687713623 -3.21964240074157715 44.0936393737792969 55 44 43
-0.156100332736968994 -3.3552100658416748 44.0230140686035156 97 112 132
-2.55927062034606934 -0.574723422527313232 44.5840415954589844 255 253 246
-2.80130624771118164 -0.744929790496826172 44.8876609802246094 121 130 149
-5.85443258285522461 -3.70040130615234375 43.225006103515625 172 203 224
-2.19930934906005859 -4.31504535675048828 43.6314582824707031 198 212 234
-0.132259175181388855 -3.21203398704528809 44.0440826416015625 82 83 75
-1.81573402881622314 -1.91825366020202637 44.7852630615234375 143 131 109
-3.73116803169250488 -5.30394887924194336 43.0937423706054688 157 144 127
-4.29703521728515625 -1.72529292106628418 44.3565025329589844 129 124 126
-0.949799597263336182 -3.27330589294433594 44.1108665466308594 129 106 87
-2.72023653984069824 -0.66531747579574585 43.1445732116699219 98 88 90
-1.87994647026062012 0.567000269889831543 45.4108390808105469 76 78 64
-2.68154573440551758 -1.77252852916717529 43.2255783081054688 31 33 36
-4.0393071174621582 -0.243472591042518616 44.8872489929199219 145 132 114
-3.70788192749023438 -6.25401639938354492 43.3177719116210938 139 122 103
-3.40587186813354492 -1.06012213230133057 45.4015579223632812 124 120 117
-3.12203550338745117 -0.90445864200592041 44.6413536071777344 112 104 106
-2.72705483436584473 1.56139659881591797 45.8219680786132812 143 158 162
-2.7929079532623291 -1.73809576034545898 43.8334007263183594 78 90 104
-4.31473350524902344 -2.86006951332092285 43.5714569091796875 91 91 96
-2.28839230537414551 -1.25321471691131592 44.3961029052734375 237 222 237
-2.4625239372253418 -2.94028234481811523 44.90386962890625 140 119 98
-2.16961765289306641 -1.3392409086227417 42.9209518432617188 142 146 156
-4.13895845413208008 -5.68787527084350586 42.7786979675292969 158 145 129
-2.66859078407287598 -0.77499699592590332 43.7006759643554688 0 0 0
-2.46037507057189941 -5.49683046340942383 44.6932334899902344 153 141 127
-5.20050191879272461 -2.3674924373626709 44.1452980041503906 119 112 112
-2.09999704360961914 -3.95371317863464355 43.6043815612792969 129 113 90
-2.59158444404602051 -1.93242490291595459 43.9253196716308594 97 84 68
-7.78211212158203125 -4.57106876373291016 42.9267501831054688 165 157 144
-2.17403197288513184 0.738418281078338623 45.4001121520996094 146 173 188
-5.78686666488647461 -4.03078937530517578 43.068572998046875 97 91 76
-2.05002355575561523 -2.95655417442321777 44.9454803466796875 141 125 109
-4.43808460235595703 -2.85773921012878418 43.9356880187988281 93 105 115
-6.32500028610229492 -4.21463918685913086 42.8338203430175781 76 90 93
-5.51758623123168945 -0.646239161491394043 44.9686965942382812 155 144 126
-2.48665785789489746 -4.41578960418701172 44.4949188232421875 121 108 89
-0.602847456932067871 -6.55398225784301758 44.8824729919433594 159 141 127
-4.46546792984008789 -1.79187130928039551 44.1710052490234375 48 42 34
-5.71321678161621094 -4.03803920745849609 43.1727943420410156 51 41 29
-4.2670893669128418 1.51246011257171631 45.8255043029785156 147 131 108
-3.56180119514465332 0.384379684925079346 45.4297256469726562 133 112 85
-9.42127799987792969 1.69110953807830811 45.3448143005371094 182 169 147
-1.03478097915649414 -2.29155063629150391 44.5137519836425781 170 151 134
-4.62809658050537109 -5.45572042465209961 44.237518310546875 146 138 126
-0.596528828144073486 -4.3891758918762207 43.7859649658203125 127 104 70
-0.32950592041015625 -3.28261065483093262 43.99114990234375 239 253 255
-5.32042026519775391 0.555895388126373291 45.7201690673828125 167 153 135
-8.97581577301025391 -3.26510238647460938 42.9520149230957031 165 158 145
-3.99817800521850586 -3.13443589210510254 44.5655708312988281 71 61 46
-6.66099166870117188 -3.88776063919067383 42.9180412292480469 87 95 108
-5.30043697357177734 -3.66769266128540039 43.5590705871582031 60 55 51
-0.867817163467407227 -3.55433177947998047 43.8754806518554688 110 124 137
-5.369415283203125 -2.50690388679504395 42.7343940734863281 108 101 94
-4.18830156326293945 -2.69518375396728516 43.9865188598632812 54 63 77
-2.56357955932617188 1.63271093368530273 45.4237480163574219 174 194 205
-3.63445210456848145 -2.28332376480102539 42.9152946472167969 115 133 150
-4.38972377777099609 -1.80568611621856689 44.0147361755371094 108 106 111
-2.7551422119140625 -1.80459487438201904 43.2619895935058594 70 76 77
-2.40455126762390137 -1.57553744316101074 44.7605247497558594 62 67 61
-2.36428523063659668 0.926885366439819336 44.6543121337890625 64 71 64
-7.91070175170898438 -5.44887781143188477 42.3926010131835938 163 154 148
-6.7350459098815918 -3.65864181518554688 42.9298057556152344 85 87 82
-7.16035223007202148 -0.942587137222290039 44.638702392578125 160 148 125
-2.22787141799926758 -4.33895730972290039 43.6384925842285156 90 109 120
-2.15034580230712891 -1.19845187664031982 23.7630634307861328 0 0 0
-3.14497613906860352 -2.10930275917053223 43.587432861328125 16 14 19
-4.3150324821472168 -2.79439353942871094 44.0227775573730469 99 110 122
-4.73298072814941406 -2.07216215133666992 44.2558174133300781 176 188 199
-6.67802524566650391 -3.3995966911315918 42.9549369812011719 82 77 70
-4.26824855804443359 -1.6817556619644165 44.6102027893066406 124 116 114
-4.20120096206665039 -1.69721245765686035 44.3699607849121094 177 187 197
-4.35255336761474609 -3.38552689552307129 44.8251495361328125 78 71 55
-7.50646448135375977 -3.16126108169555664 43.7417984008789062 150 142 129
-4.15297651290893555 -3.04909658432006836 43.9755859375 90 87 70
-1.28131067752838135 -3.68509078025817871 43.7297325134277344 51 54 68
-2.45107531547546387 -0.798665761947631836 45.0570411682128906 79 66 59
-0.597038686275482178 -3.23638486862182617 44.1473274230957031 45 38 36
-3.59266185760498047 -2.23977541923522949 42.9367179870605469 134 151 170
-2.70881915092468262 -1.94306051731109619 44.0260124206542969 0 0 0
-7.30069732666015625 -2.53161191940307617 43.7349090576171875 159 146 130
-2.16396474838256836 0.582976281642913818 45.1789207458496094 173 186 186
-2.10751628875732422 0.400726437568664551 44.990509033203125 56 59 50
-2.32612371444702148 -1.139029860496521 44.4184112548828125 194 185 186
-3.75191116333007812 -2.43862581253051758 42.9122047424316406 40 43 55
-4.14182329177856445 -3.01652073860168457 43.5049819946289062 90 82 71
-2.21668362617492676 1.4462592601776123 45.0701980590820312 236 255 255
-6.6629023551940918 0.353375613689422607 44.9831352233886719 171 159 143
-6.65105247497558594 0.350613623857498169 44.93084716796875 171 159 143
-6.71507024765014648 -2.61745381355285645 44.7055778503417969 149 133 117
-9.12118339538574219 1.29215431213378906 45.4441413879394531 176 168 155
-1.28926634788513184 -2.60662531852722168 44.28387451171875 140 123 105
-3.21854376792907715 -0.813116371631622314 44.8970909118652344 128 106 83
-5.5427393913269043 -3.89071965217590332 43.7850837707519531 59 52 36
-3.67961549758911133 -4.76304721832275391 43.10284423828125 140 127 111
-2.4560692310333252 0.0431587137281894684 45.1001548767089844 0 0 0
-1.87612259387969971 0.616180062294006348 45.2515373229980469 206 216 212
-3.2376558780670166 -1.97250175476074219 44.0858802795410156 121 147 170
-5.5585637092590332 -3.85588765144348145 43.259674072265625 57 47 50
-6.76949882507324219 -3.54620599746704102 42.8854713439941406 67 62 57
-2.19577813148498535 -4.32163143157958984 43.6275825500488281 202 219 238
-1.02840685844421387 1.30249643325805664 46.2350234985351562 0 0 0
-0.905160963535308838 3.09946799278259277 46.0763664245605469 140 164 173
-2.12648987770080566 -4.9930572509765625 43.7027473449707031 217 216 232
-2.32367610931396484 -4.78543519973754883 43.5477752685546875 116 108 92
-2.28414463996887207 -4.79151105880737305 43.3887481689453125 63 60 59
-2.51626181602478027 -1.61735057830810547 44.2735748291015625 150 165 174
-6.69396591186523438 -3.78332829475402832 42.9039726257324219 92 91 87
-6.67249536514282227 -3.77515888214111328 42.8924446105957031 165 169 171
-5.97383022308349609 -3.94550442695617676 43.0562286376953125 144 157 165
-2.33900833129882812 -4.21118927001953125 43.6885147094726562 60 51 53
-2.00438189506530762 0.981954753398895264 45.4755783081054688 195 213 227
-2.60282158851623535 -0.741860270500183105 43.5684013366699219 130 153 183
-2.56615352630615234 -0.517823159694671631 45.1870498657226562 128 115 92
-0.262945830821990967 -3.22729897499084473 44.0880813598632812 161 179 186
-2.53779125213623047 -0.60616004467010498 44.9463539123535156 74 65 56
-1.36387431621551514 -4.61398029327392578 43.8342857360839844 112 112 114
-8.74389171600341797 0.328512728214263916 44.9477386474609375 153 141 119
-5.45941829681396484 -2.57630133628845215 43.7556838989257812 183 196 208
-2.74605798721313477 1.54566752910614014 45.6747055053710938 176 186 183
-9.03031826019287109 -3.49594807624816895 43.8992424011230469 165 152 134
-3.19240069389343262 -0.986495852470397949 44.7255363464355469 170 178 181
-2.34211897850036621 0.955295085906982422 45.47332763671875 226 252 255
-3.01714539527893066 -1.74739205837249756 44.647674560546875 160 189 213
-2.11943817138671875 1.33461475372314453 44.9964332580566406 240 255 255
-5.63103866577148438 -3.54004240036010742 43.3799209594726562 169 198 226
-5.5579066276550293 -3.69800448417663574 43.3255462646484375 30 31 45
-1.75022101402282715 -3.99292731285095215 43.8097038269042969 87 96 110
-2.42287755012512207 -0.585304915904998779 42.0880851745605469 255 255 243
-3.78688716888427734 -2.39377713203430176 44.0044021606445312 112 131 156
-2.63477754592895508 -2.21810817718505859 44.867279052734375 115 99 74
-1.9478919506072998 1.0993727445602417 45.0503044128417969 122 145 160
-3.83043074607849121 -2.4750213623046875 44.2026443481445312 41 55 66
-5.50631141662597656 -1.77318251132965088 44.5682792663574219 103 94 82
-5.19977617263793945 -1.11614394187927246 45.1973648071289062 141 133 110
-2.01951694488525391 0.424174636602401733 45.1826553344726562 60 59 52
-1.99737715721130371 -3.50070357322692871 43.6511344909667969 133 115 95
-2.56999421119689941 -1.73992931842803955 44.4802970886230469 120 123 112
-5.77595949172973633 -4.11839628219604492 43.5332412719726562 100 91 76
-6.09946870803833008 -2.7523193359375 43.8372001647949219 129 106 88
-7.56083250045776367 1.14015555381774902 45.5173759460449219 148 130 110
-2.09849405288696289 1.19980192184448242 45.50933837890625 235 255 255
-1.90341830253601074 -4.20096731185913086 43.6704826354980469 171 195 219
-6.50138425827026367 -3.37899398803710938 43.0685195922851562 133 149 176
-2.36490869522094727 0.869180142879486084 45.6477127075195312 134 138 138
-1.27907776832580566 -3.6880948543548584 43.871124267578125 34 36 41
-2.10040378570556641 1.13834214210510254 45.5640716552734375 158 186 193
