ply
format ascii 1.0
element vertex 660
property float x
property float y
property float z
property uchar red
property uchar green
property uchar blue
end_header
1.17414414882659912 1.8436126708984375 106.2574462890625 130 100 50
-6.26632404327392578 -0.857330977916717529 106.252647399902344 173 155 109
2.28421926498413086 -2.35440301895141602 106.28814697265625 185 163 116
-4.53121805191040039 -2.31310033798217773 106.261199951171875 183 160 112
9.87331390380859375 -1.41277599334716797 106.158210754394531 97 67 23
-3.59351468086242676 -2.29419326782226562 106.254257202148438 187 165 118
3.89300799369812012 -0.55712282657623291 79.3130645751953125 183 183 183
11.903101921081543 -2.29591178894042969 106.222236633300781 111 88 36
13.1248950958251953 -3.03040003776550293 106.387214660644531 134 112 63
-3.82964611053466797 -2.27195072174072266 106.254570007324219 152 130 83
-0.760155320167541504 -2.98613238334655762 106.1983642578125 186 167 125
-9.2969512939453125 -2.25810599327087402 106.258415222167969 172 150 100
0.15975053608417511 -2.24733901023864746 106.281944274902344 154 130 84
-6.58558320999145508 -2.92339897155761719 106.267196655273438 181 161 118
-7.20671367645263672 -2.23111248016357422 106.272850036621094 134 112 55
-4.64714622497558594 -3.5900418758392334 106.303657531738281 155 134 89
-9.92905616760253906 -2.22634673118591309 106.275749206542969 170 148 103
1.88360655307769775 -2.84922170639038086 106.229164123535156 170 157 122
-10.7579565048217773 -2.20778584480285645 106.262016296386719 142 120 70
11.2191438674926758 -2.17127823829650879 106.217086791992188 137 117 66
-11.2817611694335938 -2.97318029403686523 106.315765380859375 128 105 56
-7.20671367645263672 -2.23111248016357422 106.272850036621094 134 112 55
3.97428035736083984 -1.85006606578826904 79.5788955688476562 149 149 149
-4.42504692077636719 -0.76147085428237915 106.270256042480469 135 111 65
-10.835906982421875 -4.0336456298828125 106.259986877441406 152 125 72
-8.49846839904785156 -4.12788200378417969 106.330032348632812 155 134 91
2.37203502655029297 -2.1546928882598877 106.302604675292969 182 160 113
-8.70201587677001953 -3.09656786918640137 106.270904541015625 177 155 112
2.37064576148986816 -2.15452027320861816 106.291313171386719 182 160 113
-7.57648038864135742 -2.22293448448181152 106.182754516601562 180 161 118
-12.7884616851806641 -2.19972848892211914 106.256095886230469 116 90 42
3.75976657867431641 -1.72961819171905518 79.4833145141601562 147 147 147
-7.32398557662963867 -1.90859889984130859 106.225860595703125 140 117 63
14.8594465255737305 -1.51090681552886963 106.253250122070312 112 88 42
-9.33325767517089844 -0.692756474018096924 106.257041931152344 136 110 61
-7.07982063293457031 -2.62843060493469238 106.326881408691406 180 161 117
-7.7306675910949707 -2.17439651489257812 106.143424987792969 140 114 65
11.719635009765625 -2.63424324989318848 106.405982971191406 152 127 71
-7.00249528884887695 -1.90128278732299805 106.327850341796875 172 149 93
-8.52668666839599609 -0.937716901302337646 106.287406921386719 169 145 97
10.8258705139160156 -0.79823833703994751 106.238899230957031 136 114 66
14.6580610275268555 -1.57464468479156494 106.168426513671875 124 97 50
12.1636171340942383 2.29969096183776855 106.197059631347656 96 66 15
-9.43816661834716797 -0.330660521984100342 106.30010986328125 157 128 70
1.78089511394500732 0.902721405029296875 106.1705322265625 164 146 106
7.98386716842651367 1.72022140026092529 106.280380249023438 138 109 53
-0.528735756874084473 -3.48300838470458984 106.217147827148438 168 150 105
8.00891017913818359 1.8780214786529541 106.217987060546875 127 100 47
3.95180225372314453 -1.99181878566741943 79.5485992431640625 188 188 188
3.50433540344238281 -1.16970312595367432 79.5781173706054688 178 178 178
-14.4724359512329102 -2.12104010581970215 106.286674499511719 146 131 90
4.05496311187744141 -1.92898678779602051 79.5037994384765625 149 149 149
6.87433338165283203 -1.29832017421722412 79.5810165405273438 136 136 136
13.9538354873657227 -2.21003460884094238 106.311676025390625 155 139 97
-6.75770092010498047 -0.651224851608276367 106.274314880371094 154 134 84
-13.4864006042480469 -2.12626147270202637 106.325050354003906 154 139 101
2.50621557235717773 1.43691396713256836 106.217514038085938 172 146 90
6.41508865356445312 -1.19989752769470215 79.6111984252929688 177 177 177
-11.6779689788818359 -3.22738981246948242 106.16156005859375 165 157 120
4.63728761672973633 -1.32878482341766357 79.6592864990234375 178 178 178
14.7371253967285156 -2.90618133544921875 106.25042724609375 122 100 46
1.38632166385650635 -2.45043492317199707 106.251853942871094 148 124 78
0.074262276291847229 -2.88747215270996094 106.268791198730469 148 129 89
12.3088264465332031 -2.41990137100219727 106.269256591796875 109 82 29
-1.43913853168487549 -2.98044133186340332 106.274696350097656 186 163 119
-3.47896432876586914 -2.40059518814086914 106.273483276367188 133 101 56
-6.97440576553344727 -2.83203029632568359 106.311294555664062 180 157 115
-5.81676483154296875 -2.36993312835693359 106.253608703613281 180 161 119
-3.91695761680603027 -2.36897397041320801 106.249214172363281 182 167 129
13.7113628387451172 -2.36635160446166992 106.248992919921875 116 86 31
-4.98615407943725586 -2.75781774520874023 106.228729248046875 181 160 115
-7.06089878082275391 -2.29859709739685059 106.219657897949219 142 115 60
-9.62003040313720703 -0.501396715641021729 106.334945678710938 158 135 81
14.5809097290039062 -2.27351140975952148 106.243637084960938 107 79 34
-14.3004322052001953 -1.68331217765808105 106.289466857910156 116 89 42
-7.53412818908691406 -1.36323225498199463 106.234992980957031 143 115 68
12.61077880859375 -3.06449151039123535 106.229331970214844 126 104 55
-9.87954330444335938 -0.755871951580047607 106.291419982910156 170 154 111
-5.58412408828735352 -0.740565240383148193 106.276313781738281 139 111 59
12.3088264465332031 -2.41990137100219727 106.269256591796875 109 82 29
14.0813493728637695 -2.75261521339416504 106.272621154785156 153 131 84
-13.5892887115478516 -2.54579591751098633 106.304702758789062 151 127 83
-1.73139047622680664 -2.45962238311767578 106.231788635253906 145 117 70
-10.1525440216064453 -3.01744842529296875 106.468589782714844 128 100 51
-9.58203792572021484 -2.39492440223693848 106.259109497070312 174 152 106
2.31741499900817871 -3.03081107139587402 106.291191101074219 183 165 115
-11.8577175140380859 -2.36578702926635742 106.258750915527344 96 63 20
-13.9496984481811523 -2.3548429012298584 106.3265380859375 99 64 22
-13.2425174713134766 -2.98410749435424805 106.191459655761719 157 143 103
-13.0125513076782227 -2.35185360908508301 106.289230346679688 101 68 15
-9.84603977203369141 -0.186413228511810303 106.293403625488281 165 139 94
-5.02505731582641602 -1.41602873802185059 106.272567749023438 183 160 117
-0.381986379623413086 -2.91333365440368652 106.365211486816406 188 171 128
3.67448282241821289 -1.37532854080200195 79.6174087524414062 152 152 152
-13.5892887115478516 -2.54579591751098633 106.304702758789062 151 127 83
0.518651247024536133 -3.42058587074279785 106.248672485351562 147 125 78
7.01459598541259766 -3.6813654899597168 106.266738891601562 127 105 48
14.6459808349609375 -2.5369412899017334 106.254737854003906 102 72 21
-7.18482780456542969 -2.81986665725708008 106.201194763183594 175 153 107
-9.39286136627197266 -2.45550680160522461 106.243499755859375 141 122 79
10.8371171951293945 -2.29260683059692383 106.231590270996094 160 142 99
-9.71440887451171875 -0.335831046104431152 106.295646667480469 170 147 89
-10.8564262390136719 -2.57166886329650879 106.20465087890625 114 86 40
-0.716787517070770264 -3.3563075065612793 106.256462097167969 187 177 146
1.25594186782836914 -0.527611732482910156 106.252754211425781 160 139 86
-14.5364303588867188 -2.51424145698547363 106.282180786132812 148 116 63
3.974090576171875 -1.8499147891998291 79.5794448852539062 149 149 149
-9.5811004638671875 -2.50171828269958496 106.242446899414062 170 155 113
11.0478725433349609 -2.53079652786254883 106.151596069335938 125 101 49
11.2129154205322266 -2.45774722099304199 106.27947998046875 130 101 48
-1.20993661880493164 -3.14492249488830566 106.325370788574219 184 163 116
11.7149696350097656 -2.44736909866333008 106.252655029296875 115 87 33
-14.0366840362548828 -2.43440890312194824 106.297073364257812 145 109 61
-13.2509956359863281 -3.08557462692260742 106.267951965332031 122 100 59
-12.4168462753295898 -2.41979026794433594 106.30975341796875 146 115 61
14.2966365814208984 -3.04911708831787109 106.276626586914062 133 110 68
-7.57726621627807617 -2.4076240062713623 106.265625 177 162 119
13.1404552459716797 -4.00278615951538086 106.225563049316406 109 85 39
10.8436098098754883 -2.41253042221069336 106.2568359375 127 106 61
1.71463358402252197 -2.95960569381713867 106.245834350585938 163 147 110
-0.774910688400268555 -2.38486576080322266 106.184959411621094 147 126 83
11.8277034759521484 -2.37462759017944336 106.247032165527344 163 138 91
13.3545217514038086 -2.36560606956481934 106.184898376464844 94 63 11
-5.62154054641723633 -2.93061137199401855 106.368637084960938 150 127 73
-4.08890342712402344 -0.674726426601409912 106.2685546875 187 172 129
14.4129362106323242 -2.81839203834533691 106.207542419433594 150 126 80
-6.18745660781860352 -2.49876856803894043 106.259811401367188 172 149 97
-9.2296142578125 -2.77688813209533691 106.27490234375 167 141 92
-5.1475529670715332 -2.4176490306854248 106.278488159179688 143 120 66
11.1286611557006836 -0.99181056022644043 106.269393920898438 126 105 60
-8.32256507873535156 -2.75092124938964844 106.201454162597656 142 119 65
1.19018030166625977 0.196464762091636658 106.316940307617188 157 133 87
6.26671266555786133 1.55995094776153564 106.061309814453125 171 144 89
5.63185882568359375 -1.40243685245513916 79.6573104858398438 134 134 134
-3.19432973861694336 -2.46126008033752441 106.279289245605469 186 162 116
2.19509315490722656 -2.17507290840148926 106.153610229492188 150 127 79
-13.3157615661621094 0.53149259090423584 106.265998840332031 147 118 65
13.899632453918457 -1.31142997741699219 106.247940063476562 123 96 49
2.12146329879760742 0.908465683460235596 106.346046447753906 159 141 91
11.238743782043457 -2.53265380859375 106.239097595214844 154 123 68
-5.71360063552856445 -0.588152825832366943 106.318290710449219 178 156 109
-11.7234935760498047 -2.52178096771240234 106.217155456542969 117 91 40
5.33326101303100586 -1.86097538471221924 79.5601806640625 180 180 180
-4.5591583251953125 -2.4898219108581543 106.225028991699219 177 149 101
-3.6351783275604248 -0.496651202440261841 106.259117126464844 152 126 77
-4.65194320678710938 -2.54787635803222656 106.243873596191406 175 152 108
-2.17734909057617188 -2.7690739631652832 106.262870788574219 186 165 120
4.28660297393798828 -1.27682125568389893 79.4212875366210938 155 155 155
-4.0685124397277832 -2.06774306297302246 106.326797485351562 183 175 139
-2.17734909057617188 -2.7690739631652832 106.262870788574219 186 165 120
-4.65198183059692383 -2.54786443710327148 106.245033264160156 175 152 108
-5.18000888824462891 -2.56681632995605469 106.249313354492188 181 160 117
-8.96016693115234375 -2.80908393859863281 106.285957336425781 117 91 41
1.64692413806915283 -2.49195384979248047 106.28643798828125 189 176 140
5.71746063232421875 -1.30602383613586426 79.5912322998046875 177 177 177
5.30465221405029297 -1.75750160217285156 79.5819778442382812 150 150 150
1.46962249279022217 -2.66051268577575684 106.272727966308594 154 130 86
-8.34110832214355469 -2.90026974678039551 106.289306640625 126 97 41
14.4996957778930664 -2.65075445175170898 106.255035400390625 150 124 73
-2.09203219413757324 -2.56359577178955078 106.297088623046875 149 122 77
-5.85413789749145508 -2.50398492813110352 106.260963439941406 136 109 59
10.553074836730957 -0.455308347940444946 106.284347534179688 116 91 42
-0.479870229959487915 -2.50323009490966797 106.280410766601562 188 173 140
12.9213924407958984 -2.48912739753723145 106.261131286621094 157 133 87
-7.23480844497680664 -2.46481633186340332 106.238677978515625 176 162 117
-0.518025100231170654 -3.29381942749023438 106.270050048828125 155 141 94
13.9010648727416992 -2.45534276962280273 106.223403930664062 152 125 80
6.58818864822387695 -1.10501432418823242 79.5395431518554688 141 141 141
2.37871074676513672 -2.26313948631286621 106.23480224609375 151 127 81
4.80038595199584961 -1.55812263488769531 79.6344223022460938 151 151 151
0.860157549381256104 -2.09332180023193359 106.231040954589844 192 171 128
4.74903726577758789 -1.42105400562286377 79.5801544189453125 179 179 179
-4.74350929260253906 -0.741079509258270264 106.268211364746094 186 165 120
13.0869407653808594 -1.06444704532623291 106.31134033203125 112 86 37
-6.6184229850769043 -3.46097493171691895 106.27947998046875 135 109 52
-8.29472255706787109 -0.757628679275512695 106.295051574707031 171 150 103
-9.06715488433837891 -2.94904017448425293 106.268150329589844 169 145 98
-5.58436107635498047 -0.740506410598754883 106.278968811035156 139 109 62
-10.2706975936889648 -0.0257308036088943481 106.252593994140625 126 99 46
-11.9646320343017578 -2.67976474761962891 106.19122314453125 126 96 46
-7.08205795288085938 -0.870539963245391846 106.269943237304688 135 101 47
-2.09189224243164062 -2.56358504295349121 106.296249389648438 149 122 77
-7.383209228515625 -3.09443449974060059 106.296775817871094 134 107 52
-2.09199857711791992 -2.56365299224853516 106.302169799804688 149 122 77
12.1863870620727539 -2.7738041877746582 106.24188232421875 159 142 97
-12.0853137969970703 -2.54924798011779785 106.256141662597656 112 82 33
13.9002389907836914 -2.45530486106872559 106.20465087890625 152 125 80
-0.651923954486846924 -2.67235422134399414 106.210342407226562 148 124 78
-10.336216926574707 -1.60759556293487549 106.281318664550781 165 143 94
5.2637019157409668 -1.63378632068634033 79.6344451904296875 144 144 144
-10.6478710174560547 -0.681253135204315186 106.27032470703125 165 144 101
-3.9528501033782959 -3.7224879264831543 106.21478271484375 158 138 88
13.9854898452758789 1.88683652877807617 106.19287109375 153 135 92
13.7091770172119141 -2.87980008125305176 106.280311584472656 104 80 34
-3.2660984992980957 -2.69411420822143555 106.261085510253906 180 158 111
12.7447614669799805 -2.67846417427062988 106.251205444335938 150 123 70
-13.6954231262207031 -2.65861749649047852 106.257781982421875 116 89 42
-7.42517614364624023 -2.66023516654968262 106.28765869140625 176 154 103
-9.36366653442382812 -2.82315635681152344 106.27490234375 128 102 50
-14.0421218872070312 -2.65319204330444336 106.267974853515625 106 84 37
14.0805511474609375 -2.75361967086791992 106.259696960449219 152 131 85
-4.44520854949951172 -2.64256429672241211 106.287490844726562 183 161 112
-14.5399436950683594 -2.60613036155700684 106.306282043457031 107 79 32
-8.52396392822265625 -2.84804058074951172 106.275619506835938 139 113 63
11.0602951049804688 -2.53556180000305176 106.266899108886719 123 95 45
-5.77049446105957031 -2.7111358642578125 106.299163818359375 133 113 63
0.0875340551137924194 -2.51275873184204102 106.275115966796875 188 169 126
-0.789633274078369141 -2.47614455223083496 106.274894714355469 190 167 125
-10.190434455871582 -2.3845665454864502 106.238853454589844 164 145 102
0.217200949788093567 -2.43877243995666504 106.221336364746094 162 141 96
11.6796712875366211 -3.19625139236450195 106.23846435546875 159 135 79
-12.5529375076293945 0.583089053630828857 106.329124450683594 120 91 43
10.2145929336547852 -0.924605011940002441 106.246742248535156 153 141 103
-1.43125247955322266 -2.75236248970031738 106.1728515625 184 160 116
-3.06356120109558105 -2.66455483436584473 106.262001037597656 153 131 82
-12.0514497756958008 -3.1699216365814209 106.282691955566406 133 109 66
-5.93006134033203125 -0.432596206665039062 106.258102416992188 134 104 49
-1.97997641563415527 -2.67017078399658203 106.259735107421875 148 125 75
-2.28287816047668457 -2.63396143913269043 106.285293579101562 185 162 120
-12.1149349212646484 -2.93478178977966309 106.332160949707031 159 139 89
6.74272441864013672 -4.5623931884765625 106.219749450683594 174 157 104
14.7017374038696289 1.58267629146575928 106.162078857421875 110 88 39
-3.97746634483337402 -2.69534587860107422 106.277587890625 152 130 81
-13.0411472320556641 -2.73806118965148926 106.272804260253906 159 136 96
-14.9118480682373047 -2.66134858131408691 106.262107849121094 144 121 77
11.8957948684692383 -2.68579816818237305 106.252937316894531 116 90 40
-9.17144870758056641 -2.64092874526977539 106.267959594726562 174 152 104
11.2272071838378906 -2.62626409530639648 106.243743896484375 116 84 27
-2.28287816047668457 -2.63396143913269043 106.285293579101562 185 162 120
-7.03484439849853516 -0.24778999388217926 106.165824890136719 143 109 54
-4.64556884765625 -2.61576151847839355 106.280876159667969 185 164 117
10.0055398941040039 -1.19473063945770264 106.277267456054688 154 140 103
-8.69701862335205078 -2.58858084678649902 106.304573059082031 147 125 76
-8.4510040283203125 -2.52755212783813477 106.274398803710938 146 126 74
3.65384459495544434 -1.59181737899780273 79.6263046264648438 159 159 159
-9.90509414672851562 -0.491076678037643433 106.267196655273438 173 150 108
10.2112255096435547 -0.747637391090393066 106.281181335449219 131 110 63
-7.29464578628540039 0.234422385692596436 78.9167861938476562 0 0 0
14.7044219970703125 1.58250641822814941 106.178024291992188 110 88 39
6.02274417877197266 -1.34361362457275391 79.608367919921875 138 138 138
-0.32344365119934082 0.238130375742912292 106.29571533203125 142 114 66
-8.43831348419189453 -3.9508509635925293 106.312301635742188 146 124 67
-9.80077934265136719 -2.8182671070098877 106.15045166015625 113 87 28
-1.09050965309143066 -2.67605876922607422 106.211311340332031 189 167 128
-6.72834014892578125 -2.56206607818603516 106.233322143554688 177 156 111
1.47126257419586182 -3.82270908355712891 106.312400817871094 149 131 83
5.07102155685424805 -1.55064678192138672 79.6591873168945312 172 172 172
-1.47309970855712891 -3.36062073707580566 106.374313354492188 165 144 99
-14.6051416397094727 -3.14810061454772949 106.294219970703125 131 112 70
-6.56377601623535156 -0.983121097087860107 106.279991149902344 175 162 120
6.82328128814697266 -0.554641306400299072 79.5948333740234375 177 177 177
-11.7864723205566406 -2.79881000518798828 106.321586608886719 159 140 98
-13.633488655090332 -2.8838045597076416 106.269523620605469 111 90 43
14.6688060760498047 -2.83014059066772461 106.280105590820312 143 120 70
13.7660026550292969 -2.79305505752563477 106.242401123046875 158 140 94
-5.88688230514526367 -2.76739740371704102 106.296676635742188 178 158 108
-13.4349546432495117 -2.76461434364318848 106.181205749511719 130 103 61
12.1301097869873047 -2.31858730316162109 106.259773254394531 160 135 81
-13.8518667221069336 -2.69961738586425781 106.277946472167969 152 130 84
2.73529911041259766 -2.68732142448425293 106.271507263183594 183 169 132
-7.91838598251342773 -0.48325425386428833 106.019790649414062 132 105 58
-4.66448783874511719 0.934694886207580566 79.5556488037109375 174 174 174
-8.77353858947753906 -3.31860828399658203 106.30352783203125 138 112 63
5.39256572723388672 -1.72164714336395264 79.5741806030273438 175 175 175
8.49553298950195312 -3.80362534523010254 106.27685546875 174 160 121
-7.11472797393798828 -1.29681932926177979 106.245552062988281 175 150 109
-9.87360382080078125 -0.375692367553710938 106.292495727539062 144 116 67
-13.8569297790527344 -3.38745284080505371 106.272972106933594 148 121 74
14.6688060760498047 -2.83014059066772461 106.280105590820312 143 120 70
13.2412700653076172 -1.01895534992218018 106.259757995605469 156 129 83
-2.38494157791137695 1.748268723487854 106.216697692871094 143 121 69
-2.38723182678222656 1.7499922513961792 106.252586364746094 143 121 69
-13.8564624786376953 -2.7887260913848877 106.291984558105469 125 101 55
-7.84584236145019531 -2.78558015823364258 106.361671447753906 142 120 69
13.6316814422607422 -3.98426580429077148 106.272300720214844 152 125 72
-10.4532203674316406 -2.69253849983215332 106.263252258300781 132 105 50
13.794590950012207 -2.5017697811126709 106.3450927734375 118 92 35
-6.43180608749389648 -0.46092909574508667 106.277252197265625 132 107 51
-2.20745992660522461 -3.89890933036804199 106.213790893554688 147 121 73
-7.36258745193481445 -2.37083268165588379 106.286880493164062 155 138 93
14.8468523025512695 -2.79880690574645996 106.247840881347656 110 87 37
10.5709314346313477 -3.85843563079833984 106.303474426269531 168 146 98
6.74170637130737305 -1.93643271923065186 79.5201187133789062 175 175 175
-9.68110275268554688 -2.94064474105834961 106.29010009765625 126 97 39
2.49688363075256348 -2.85661959648132324 106.273216247558594 186 165 122
-7.65616989135742188 -2.77227163314819336 106.300872802734375 172 160 121
6.66123628616333008 -2.16306877136230469 79.5893020629882812 179 179 179
2.28244757652282715 1.16363751888275146 106.25067138671875 182 166 122
-12.9894485473632812 -2.85346078872680664 106.252731323242188 119 95 49
10.8413972854614258 -3.02154779434204102 106.260993957519531 155 125 68
-5.80550289154052734 -2.92976188659667969 106.250282287597656 178 157 112
11.2319812774658203 -2.89916896820068359 106.261146545410156 161 147 104
-11.9539041519165039 -2.89665031433105469 106.302391052246094 118 90 37
3.57942914962768555 -3.77153873443603516 106.132034301757812 188 174 133
-1.47345232963562012 -2.62077450752258301 106.257270812988281 152 129 88
-3.25603532791137695 -0.332067906856536865 106.248870849609375 185 163 116
-1.04125106334686279 -3.02562904357910156 106.282394409179688 188 169 126
-8.66924858093261719 -2.98420858383178711 106.306472778320312 111 83 33
1.19159138202667236 -2.95711708068847656 106.228179931640625 153 132 89
9.20109939575195312 -3.94421672821044922 106.305778503417969 144 129 88
-10.6898288726806641 -2.95669388771057129 106.287025451660156 156 130 81
-12.8681163787841797 -2.93380284309387207 106.298904418945312 115 94 47
11.9052963256835938 -2.9276270866394043 106.245071411132812 162 140 93
-7.32781982421875 -2.89239001274108887 106.271690368652344 139 118 62
11.7156829833984375 -2.88801121711730957 106.241363525390625 138 114 68
12.6119394302368164 -3.06455230712890625 106.241722106933594 126 104 55
-13.6949386596679688 -2.65865230560302734 106.257339477539062 118 91 44
0.590249359607696533 -2.62835788726806641 106.0550537109375 190 173 130
6.29187583923339844 -3.84474730491638184 106.364997863769531 180 166 119
-3.81235599517822266 -0.407063007354736328 106.248489379882812 145 119 70
-10.8615407943725586 -3.10120677947998047 106.285301208496094 153 128 72
-13.6915960311889648 -3.09293556213378906 106.306159973144531 115 94 49
-1.37070333957672119 -3.09875774383544922 106.347549438476562 161 139 92
14.8748455047607422 -3.98959207534790039 106.288230895996094 153 131 88
-2.10346698760986328 -3.03402590751647949 106.249046325683594 163 144 100
1.82278811931610107 -3.29689359664916992 106.326797485351562 143 122 75
-0.921296656131744385 -2.98341965675354004 106.2928466796875 162 143 100
2.52934575080871582 -3.51171612739562988 106.279373168945312 158 131 84
-3.27289772033691406 -2.98768281936645508 106.179458618164062 181 161 118
-4.54073524475097656 -2.95127296447753906 106.283432006835938 182 159 114
-5.54468679428100586 -2.84723329544067383 106.414337158203125 170 148 95
-13.2508811950683594 -2.76676607131958008 106.272575378417969 134 113 70
6.79827976226806641 -1.18208861351013184 79.5854873657226562 135 135 135
-2.84149909019470215 -2.54214167594909668 106.276252746582031 153 130 86
-5.3229670524597168 -0.470696628093719482 106.280723571777344 141 119 70
6.46907997131347656 -0.135106608271598816 79.5804977416992188 164 162 158
3.86217665672302246 2.26572465896606445 106.168212890625 146 121 71
-14.5352287292480469 -2.96143960952758789 106.279045104980469 102 74 27
-3.47948074340820312 -2.40034747123718262 106.287315368652344 135 104 58
-6.41949033737182617 -3.73130083084106445 106.296989440917969 136 110 59
-7.84017419815063477 -3.26826786994934082 106.265525817871094 172 148 101
-11.0354347229003906 -3.21299839019775391 106.244903564453125 167 145 97
11.6128520965576172 -3.36983704566955566 106.176689147949219 163 136 89
-6.95485591888427734 -3.75474286079406738 106.313514709472656 179 158 102
-5.56566524505615234 -3.18516230583190918 106.292411804199219 154 136 86
-10.2810430526733398 -3.05101299285888672 106.197624206542969 167 145 96
4.15042829513549805 -3.86627364158630371 106.261276245117188 182 169 125
-0.674776077270507812 -3.05406618118286133 106.207138061523438 186 171 128
-5.08919048309326172 -3.71859169006347656 105.987205505371094 136 108 58
1.7762446403503418 -4.17889595031738281 106.236503601074219 191 176 141
2.72359752655029297 -3.05483531951904297 106.256370544433594 184 166 120
-7.84017419815063477 -3.26826786994934082 106.265525817871094 172 148 101
-7.6239628791809082 -3.2267155647277832 106.293434143066406 139 110 52
14.2503862380981445 -3.1750037670135498 106.257156372070312 157 136 91
-6.02064943313598633 -3.16693997383117676 106.288742065429688 179 170 142
-9.17427444458007812 -3.04750394821166992 106.257820129394531 124 94 36
-10.2818078994750977 -3.22015285491943359 106.236640930175781 125 98 47
-8.48409175872802734 -3.20421195030212402 106.275924682617188 141 120 73
14.4579925537109375 -3.18194079399108887 106.260871887207031 116 93 42
8.71464729309082031 -3.32621192932128906 106.298736572265625 175 157 111
12.911952018737793 -3.17621660232543945 106.280220031738281 115 90 37
4.86311149597167969 -4.02676773071289062 106.086105346679688 182 163 120
-13.2931737899780273 -3.17173004150390625 106.232223510742188 159 138 96
-1.04377138614654541 -3.14349198341369629 106.265830993652344 152 130 83
-5.21297025680541992 -0.0474110953509807587 106.284957885742188 137 114 63
-10.4105558395385742 -3.12603068351745605 106.249473571777344 128 103 46
8.49929141998291016 -3.29457521438598633 106.275794982910156 133 110 58
2.08217239379882812 -3.10610055923461914 106.287612915039062 160 139 94
-11.3606300354003906 -3.08370232582092285 106.218605041503906 164 143 97
5.88286304473876953 -3.97936844825744629 106.314002990722656 134 108 51
-11.0180215835571289 -3.04168415069580078 106.227142333984375 118 93 39
-5.20711374282836914 -3.03268146514892578 106.266006469726562 155 133 84
-1.76787543296813965 -0.847661972045898438 106.247734069824219 135 107 59
12.0093812942504883 -2.82888126373291016 106.391983032226562 129 106 54
2.7013092041015625 -0.637479901313781738 106.271835327148438 135 111 55
12.4301872253417969 -3.03397226333618164 106.106826782226562 160 139 92
12.3415422439575195 -4.69044589996337891 106.3658447265625 160 147 102
-6.64736175537109375 -0.424525976181030273 106.244712829589844 145 123 65
-11.3299131393432617 -3.18951940536499023 106.1317138671875 132 107 53
-11.9133586883544922 -4.18450117111206055 106.249481201171875 155 128 75
11.4052209854125977 -4.48680639266967773 106.241828918457031 165 138 91
-3.85827016830444336 -3.19192409515380859 106.382469177246094 182 158 112
10.4542703628540039 -4.77594614028930664 106.05218505859375 99 85 59
-0.18974323570728302 -3.17531728744506836 106.323699951171875 148 125 81
-2.03233861923217773 -4.39431285858154297 106.257858276367188 168 145 100
-9.84784412384033203 -2.59705114364624023 106.290298461914062 173 155 109
1.56092929840087891 -0.70164644718170166 106.257911682128906 189 169 124
13.3796014785766602 -4.24142742156982422 106.224678039550781 127 104 52
-9.25484275817871094 -5.13399553298950195 106.209938049316406 175 158 115
-5.71446657180786133 -0.587826788425445557 106.328361511230469 178 156 109
-7.35076427459716797 -0.180384829640388489 106.255058288574219 170 146 98
0.36299055814743042 -4.30291366577148438 106.275093078613281 188 179 140
0.721801638603210449 -3.22216677665710449 106.23272705078125 188 165 123
-8.16005706787109375 -5.22009897232055664 106.320632934570312 173 153 106
-2.52927327156066895 -2.94162464141845703 106.266746520996094 186 162 116
0.233420282602310181 -4.15879106521606445 105.645248413085938 186 170 125
-5.41862297058105469 -2.81369233131408691 106.368301391601562 157 134 80
5.65912485122680664 -3.41758179664611816 106.436622619628906 154 137 91
14.8454065322875977 -2.79762363433837891 106.258766174316406 109 83 34
6.71005344390869141 -4.21754217147827148 106.26385498046875 173 151 102
-5.65159463882446289 -4.16130542755126953 105.926521301269531 183 160 116
-12.1917037963867188 -1.79827618598937988 106.253791809082031 139 118 71
-12.8133430480957031 -2.62756538391113281 106.074684143066406 148 123 76
-13.2737827301025391 -0.388694792985916138 106.287628173828125 132 119 76
9.57866954803466797 -3.23785209655761719 106.253715515136719 132 106 49
-10.8497867584228516 -3.30338382720947266 106.2647705078125 139 117 67
14.1107044219970703 -3.24145317077636719 106.188316345214844 117 95 46
-10.8090543746948242 -3.96103358268737793 106.276924133300781 115 89 37
10.967778205871582 -3.21555280685424805 106.235038757324219 127 103 52
3.0075840950012207 -4.69664669036865234 106.239990234375 151 127 79
11.6796712875366211 -3.19625139236450195 106.23846435546875 159 135 79
-7.44724416732788086 -3.17321515083312988 106.268028259277344 178 153 97
-4.01932477951049805 -3.93208003044128418 106.198997497558594 181 172 131
5.53163385391235352 -4.23107481002807617 106.263961791992188 150 123 73
-0.684204995632171631 -3.17600893974304199 106.25 162 147 104
-2.529449462890625 -3.14224958419799805 106.308326721191406 187 169 124
5.46263027191162109 -3.92191123962402344 106.310104370117188 176 153 99
-2.52927327156066895 -2.94162464141845703 106.266746520996094 186 162 116
13.4933052062988281 -4.69384336471557617 106.302642822265625 155 133 86
-10.8371963500976562 -5.58880233764648438 106.159996032714844 136 110 59
-5.41862297058105469 -2.81369233131408691 106.368301391601562 157 134 80
13.3277177810668945 -3.8586888313293457 106.226783752441406 121 97 49
-7.3892521858215332 -5.63088083267211914 106.133445739746094 137 117 66
-13.2249355316162109 -2.09417247772216797 106.19189453125 156 137 94
-6.46497535705566406 -3.85879087448120117 106.250770568847656 182 160 113
-5.7725377082824707 -1.89412271976470947 106.172409057617188 150 126 79
-12.0588274002075195 -1.7590329647064209 106.212577819824219 163 146 100
11.2804155349731445 -4.28926706314086914 106.379783630371094 135 108 55
-9.64809703826904297 -1.33568763732910156 106.238716125488281 143 118 64
-3.46763801574707031 -0.650524616241455078 106.29302978515625 180 156 109
9.54535675048828125 -4.56099319458007812 106.261940002441406 164 151 117
-6.79375886917114258 -0.468245536088943481 106.216545104980469 146 121 65
3.28197622299194336 -3.35535120964050293 106.236587524414062 175 156 112
-9.47312831878662109 -0.419246196746826172 106.183380126953125 134 107 52
-11.4450263977050781 -4.28199481964111328 106.301918029785156 115 89 38
3.46779751777648926 1.37069344520568848 106.189102172851562 156 134 87
-7.25035285949707031 -3.77417349815368652 106.376091003417969 143 118 62
12.0844831466674805 -1.81456255912780762 106.3214111328125 154 140 95
10.7241401672363281 -1.02921390533447266 106.38043212890625 145 132 87
10.2512140274047852 1.38518118858337402 106.259178161621094 156 133 79
14.1537857055664062 -2.88798904418945312 106.23321533203125 149 135 90
-10.5366230010986328 -3.07850432395935059 106.379379272460938 152 126 70
1.15815830230712891 -3.11922502517700195 106.281219482421875 185 178 144
-0.206570625305175781 -4.00940084457397461 106.248992919921875 171 155 114
-4.35593652725219727 -3.22178506851196289 106.300621032714844 140 114 67
-14.4378480911254883 -3.79306721687316895 106.239715576171875 119 95 48
-13.8974056243896484 -3.22299599647521973 106.280754089355469 118 94 46
-6.03399276733398438 -3.87568187713623047 106.199806213378906 178 159 117
-6.94747114181518555 -0.752991080284118652 106.283531188964844 176 163 123
-2.74814987182617188 -3.25591230392456055 106.258636474609375 184 172 134
0.992950022220611572 -3.24418878555297852 106.244880676269531 147 124 82
-3.16286683082580566 -5.7123417854309082 106.1688232421875 181 159 112
13.627467155456543 -3.21908235549926758 106.276222229003906 157 138 95
-5.37022972106933594 -5.69338321685791016 106.268966674804688 180 155 101
-5.45812702178955078 0.28462645411491394 79.6543502807617188 129 129 129
-5.37564611434936523 -3.80524802207946777 106.271186828613281 136 109 54
-3.49666023254394531 -3.44433474540710449 106.291061401367188 179 156 104
5.7862086296081543 -4.2967677116394043 106.317100524902344 181 167 128
-2.85974311828613281 -3.38209295272827148 106.295173645019531 153 129 83
3.60726380348205566 -0.148260012269020081 79.5441970825195312 164 166 163
0.915189385414123535 -3.36917638778686523 106.236900329589844 190 166 118
-8.35115909576416016 -3.36324453353881836 106.263633728027344 130 100 46
14.6425457000732422 -3.95813560485839844 106.1925048828125 122 98 50
-7.98475503921508789 -3.35346508026123047 106.224189758300781 128 101 48
-8.58199691772460938 -3.28016352653503418 106.291534423828125 167 145 96
-0.656798720359802246 -4.02813863754272461 106.247650146484375 147 123 77
7.37921333312988281 -4.14802265167236328 106.275199890136719 139 113 56
-12.3304986953735352 -3.26185202598571777 106.267738342285156 109 79 30
12.3355312347412109 -4.2209467887878418 106.25616455078125 98 68 18
-3.60541319847106934 -3.22954106330871582 106.261772155761719 141 118 68
-13.1783361434936523 -4.014862060546875 106.270866394042969 152 128 80
-4.50627756118774414 -1.45172631740570068 106.271438598632812 146 118 63
-6.77931928634643555 -3.02647233009338379 106.215682983398438 181 161 122
-14.2174968719482422 -3.96780228614807129 106.209632873535156 119 97 48
-4.56319522857666016 -5.50273036956787109 106.265449523925781 155 134 77
-4.79717493057250977 -2.87139534950256348 106.517494201660156 182 161 116
10.0611076354980469 -4.25621128082275391 106.219711303710938 110 82 35
-12.1316089630126953 -0.488650768995285034 106.30389404296875 160 142 96
13.6508960723876953 -4.06916666030883789 106.294136047363281 111 85 34
15.0465002059936523 -0.422421038150787354 106.266036987304688 147 133 86
-13.1777172088623047 -3.41434836387634277 106.217071533203125 163 142 97
-14.9008474349975586 -4.09393405914306641 106.25738525390625 154 133 87
14.094731330871582 -3.34883379936218262 106.223350524902344 158 142 93
6.74764013290405273 -3.83069276809692383 106.354560852050781 180 162 117
-13.0483417510986328 -3.33347344398498535 106.284866333007812 106 78 28
-7.66692161560058594 -0.718627691268920898 106.152656555175781 132 106 52
-2.19074177742004395 -3.23697090148925781 106.106491088867188 187 172 135
8.14925575256347656 -5.57070684432983398 106.285392761230469 175 154 107
-9.83293533325195312 -1.96189308166503906 106.208465576171875 137 107 55
-6.48830461502075195 -0.901275336742401123 106.622795104980469 162 149 101
-14.2828950881958008 -1.88572442531585693 106.253616333007812 122 100 55
13.179438591003418 -3.90386795997619629 106.2696533203125 160 138 97
-4.7405543327331543 -3.45121550559997559 106.199729919433594 162 139 93
-4.59936666488647461 -3.49679946899414062 106.288124084472656 185 162 118
-10.8730220794677734 -3.86670994758605957 106.263679504394531 168 142 91
-6.6184229850769043 -3.46097493171691895 106.27947998046875 135 109 52
-7.67583084106445312 -3.45071601867675781 106.213127136230469 172 151 96
-12.5823850631713867 -4.85234308242797852 106.202003479003906 104 76 26
13.4894065856933594 -3.43809962272644043 106.243766784667969 159 141 95
-13.7542667388916016 -0.568373918533325195 106.300247192382812 122 95 44
-14.9275064468383789 -4.6053929328918457 106.263031005859375 105 82 41
-3.72237825393676758 -3.42734050750732422 106.280563354492188 158 131 84
-7.37078142166137695 -3.82941484451293945 106.252006530761719 145 120 66
11.9628162384033203 -3.42268180847167969 106.252975463867188 133 107 59
-13.8969964981079102 -4.85071945190429688 106.066680908203125 151 129 82
-13.4120082855224609 -3.36414504051208496 106.233772277832031 109 84 35
-12.3477439880371094 -5.08695268630981445 106.177093505859375 132 113 70
1.35642623901367188 -3.37227272987365723 106.339065551757812 190 165 124
14.9000558853149414 -4.25589179992675781 106.256790161132812 118 101 57
14.2942342758178711 -3.77981019020080566 106.213516235351562 129 103 52
-12.1345901489257812 -3.36004424095153809 106.210151672363281 129 106 58
4.61620903015136719 -3.56631851196289062 106.273567199707031 150 127 73
-8.33340167999267578 -4.20540761947631836 106.262351989746094 166 148 108
11.7621564865112305 -3.32807207107543945 106.321029663085938 126 96 42
5.68518352508544922 -4.05359601974487305 106.257949829101562 147 124 70
-14.7438383102416992 -3.32301187515258789 106.25360107421875 109 78 32
10.8392934799194336 -5.10455226898193359 106.191276550292969 160 140 93
-4.69440603256225586 -3.31341314315795898 106.237556457519531 138 111 58
2.36689639091491699 -4.21560811996459961 106.271438598632812 153 129 84
-5.35061359405517578 -4.14798736572265625 106.252769470214844 180 167 125
-4.0018768310546875 -3.25952363014221191 106.285789489746094 151 126 72
2.78513646125793457 -3.25909662246704102 106.308425903320312 187 168 123
-10.0530261993408203 -4.27996540069580078 106.208526611328125 118 91 34
-12.6965646743774414 -3.2445836067199707 106.216552734375 115 89 40
-8.29748439788818359 -0.167599603533744812 106.409515380859375 138 111 64
13.3418235778808594 -3.2096564769744873 106.271270751953125 128 105 55
13.3843345642089844 -3.6088101863861084 106.21875 148 126 79
12.1079311370849609 -2.69416046142578125 106.297370910644531 159 141 95
14.4244289398193359 -4.03267383575439453 106.268264770507812 111 89 39
-0.298687517642974854 -2.52763652801513672 106.295707702636719 193 176 142
3.87684869766235352 -1.44450604915618896 79.5704116821289062 178 178 178
-6.30303382873535156 -3.94081282615661621 106.214218139648438 153 135 85
-6.28654718399047852 -0.42494964599609375 106.230850219726562 171 146 92
7.03153371810913086 -3.44899535179138184 106.287139892578125 123 100 48
-8.12316703796386719 -0.332582443952560425 106.332359313964844 170 148 96
6.11770963668823242 -4.40913724899291992 106.285797119140625 178 165 117
-3.74979543685913086 -0.323938071727752686 106.264778137207031 183 161 111
0.780016243457794189 -3.45391392707824707 106.303543090820312 148 124 78
13.951385498046875 -3.40631890296936035 106.282882690429688 114 96 49
6.73812961578369141 -3.92884206771850586 106.285903930664062 130 100 48
12.3388128280639648 -3.33769607543945312 106.39453125 161 142 96
-12.8484649658203125 -3.84518265724182129 106.296318054199219 154 131 82
13.5393257141113281 -3.34142374992370605 106.272392272949219 128 107 64
12.1079311370849609 -2.69416046142578125 106.297370910644531 159 141 95
2.09497356414794922 0.124597229063510895 106.200698852539062 184 159 113
-9.95372295379638672 -4.15775203704833984 106.254486083984375 167 138 83
1.82278811931610107 -3.29689359664916992 106.326797485351562 143 122 75
-5.97129011154174805 -0.215865477919578552 106.273025512695312 128 104 56
3.0343015193939209 -3.42371916770935059 106.252899169921875 161 139 90
11.2900609970092773 -5.46382665634155273 106.268898010253906 163 145 97
1.54280078411102295 -3.34430956840515137 106.318405151367188 147 122 82
14.8038959503173828 -4.09097099304199219 106.2802734375 120 97 54
-14.0964336395263672 -3.31596493721008301 106.275619506835938 149 122 75
9.28661537170410156 -4.15410423278808594 106.238945007324219 165 147 101
-14.0964336395263672 -3.31596493721008301 106.275619506835938 149 122 75
-5.62881708145141602 -2.93247199058532715 106.519561767578125 148 125 71
-12.2501335144042969 -3.82136654853820801 106.633529663085938 118 90 42
-2.42746925354003906 -2.90079736709594727 106.203346252441406 162 138 94
3.2249603271484375 -5.47830677032470703 106.232078552246094 140 113 66
-11.588465690612793 -0.68789982795715332 106.315750122070312 141 118 74
7.55256080627441406 -4.2734837532043457 106.320419311523438 142 116 67
-14.262476921081543 -3.52718329429626465 106.210433959960938 110 83 36
-3.00748395919799805 -4.15699100494384766 106.306419372558594 144 118 72
-13.8873071670532227 -3.48397636413574219 106.310874938964844 117 91 41
10.3347129821777344 -4.43494081497192383 106.298759460449219 126 97 41
-0.301473081111907959 -3.42165899276733398 106.22247314453125 161 140 93
-0.221749216318130493 -1.15093350410461426 106.200553894042969 151 124 75
0.740337014198303223 -3.36076498031616211 106.244789123535156 190 167 122
10.0934247970581055 -5.45023536682128906 106.238029479980469 149 128 72
-4.1439061164855957 -3.33521938323974609 106.340164184570312 187 164 118
-14.013092041015625 -3.88754081726074219 106.260917663574219 116 89 41
5.96697378158569336 -4.73505878448486328 106.090179443359375 148 127 77
0.522827327251434326 -3.32256174087524414 106.218734741210938 188 167 122
6.70127630233764648 -5.44954299926757812 106.216934204101562 183 160 116
1.71158015727996826 -3.33997941017150879 106.283088684082031 190 169 127
1.1486821174621582 -5.37961483001708984 106.23321533203125 193 179 137
2.15465092658996582 -5.4717249870300293 106.506576538085938 164 140 94
3.46845126152038574 -3.31267476081848145 106.245429992675781 157 133 89
12.7467889785766602 -3.30857753753662109 106.196365356445312 135 110 55
12.0695438385009766 -5.54590845108032227 106.32330322265625 163 144 96
6.88992595672607422 -2.23066234588623047 79.455535888671875 162 162 162
-14.4118556976318359 -3.9628751277923584 106.481307983398438 150 129 84
7.74987173080444336 -5.29323005676269531 106.252754211425781 118 88 38
-1.45417416095733643 -2.0234529972076416 106.245513916015625 191 172 132
7.72130823135375977 -3.52634620666503906 106.281639099121094 137 115 65
11.4913158416748047 -4.6461644172668457 106.258079528808594 165 143 93
-9.06894302368164062 -3.47097253799438477 106.290390014648438 136 109 61
0.0223837848752737045 -3.86560177803039551 106.2894287109375 155 137 89
4.79839324951171875 -4.62527799606323242 106.285362243652344 149 128 73
-13.4826507568359375 -3.49429726600646973 106.434623718261719 144 116 69
9.19337940216064453 -3.94689726829528809 106.23931884765625 143 128 88
-7.44877052307128906 -4.63734722137451172 106.254432678222656 137 110 55
-11.2374734878540039 -3.26783323287963867 106.287345886230469 163 141 87
2.48071694374084473 -3.65923571586608887 106.214065551757812 190 175 134
2.43599724769592285 -3.31510162353515625 106.267341613769531 189 177 151
3.62091588973999023 -4.52343177795410156 106.237419128417969 149 121 71
6.60104894638061523 -1.84357249736785889 79.5054855346679688 177 177 177
6.31290912628173828 -1.82032597064971924 79.6855087280273438 140 140 140
7.44297599792480469 -2.92234492301940918 106.281707763671875 175 160 121
5.90581560134887695 -1.58282911777496338 79.3947830200195312 134 134 134
14.2791070938110352 -3.96086382865905762 106.251083374023438 110 83 30
0.355792135000228882 -3.58182764053344727 106.324127197265625 188 169 126
-2.47393369674682617 -4.4731898307800293 106.3157958984375 151 124 72
1.74279546737670898 -3.43355846405029297 106.251510620117188 186 172 133
-9.76785469055175781 -3.38730502128601074 106.255996704101562 169 157 117
13.343480110168457 -3.70737528800964355 106.211135864257812 135 113 66
-0.0593375712633132935 0.587235450744628906 106.239387512207031 176 163 118
-4.94827413558959961 -3.39730334281921387 106.302261352539062 184 172 130
-11.6802215576171875 -3.8937523365020752 106.180740356445312 118 88 38
-13.3600578308105469 -5.70309114456176758 106.314743041992188 129 106 59
-6.34816217422485352 -3.37884116172790527 106.292274475097656 177 161 116
-2.47609758377075195 -4.47359514236450195 106.329177856445312 151 124 72
-3.40327119827270508 -3.32127237319946289 106.181938171386719 143 121 71
-3.46129155158996582 -3.67409300804138184 106.284095764160156 161 141 90
-6.34816217422485352 -3.37884116172790527 106.292274475097656 177 161 116
-14.6974372863769531 -4.4313664436340332 106.172966003417969 102 74 27
13.8983068466186523 -4.77665233612060547 106.260383605957031 155 133 85
-12.5988292694091797 -3.44784140586853027 106.264480590820312 99 68 22
7.72130823135375977 -3.52634620666503906 106.281639099121094 137 115 65
-6.2998814582824707 -5.22662448883056641 106.301139831542969 178 156 110
0.608786940574645996 -3.64478540420532227 106.22418212890625 159 136 84
-2.8031001091003418 -2.45451807975769043 106.289878845214844 182 163 120
-9.03086757659912109 -3.63434743881225586 106.290687561035156 115 86 34
2.66312050819396973 -5.58245611190795898 106.302459716796875 138 110 70
14.2423458099365234 -3.58679056167602539 106.234291076660156 152 129 85
10.3073234558105469 -4.06672096252441406 106.252304077148438 124 102 55
-8.14451503753662109 -3.54633045196533203 106.25439453125 127 102 46
-4.92782020568847656 -3.52311563491821289 106.253608703613281 155 131 87
11.9329299926757812 -4.15164947509765625 106.223609924316406 117 89 37
1.57729852199554443 -3.52781343460083008 106.235633850097656 137 112 68
5.98092508316040039 -3.78466701507568359 106.30010986328125 149 127 78
13.9247207641601562 -3.50641894340515137 106.232566833496094 159 140 97
14.0149679183959961 -4.07175970077514648 106.250572204589844 115 91 35
14.2647209167480469 -3.46598458290100098 106.157241821289062 119 96 46
9.35730361938476562 -4.06715250015258789 106.256332397460938 126 103 61
-8.07563972473144531 -3.44100165367126465 106.254539489746094 174 152 105
-3.15439081192016602 -3.39560842514038086 106.262428283691406 189 171 128
-10.2520618438720703 -3.70560717582702637 106.267692565917969 164 155 112
-14.0312719345092773 -3.55199241638183594 106.287528991699219 150 125 77
14.0354413986206055 -3.64762353897094727 106.246833801269531 112 82 28
10.4600820541381836 -2.69710969924926758 106.271926879882812 166 148 102
10.4447002410888672 -0.713294625282287598 106.299606323242188 147 126 73
3.69001293182373047 -1.86136305332183838 79.5828018188476562 187 187 187
-9.69973468780517578 -3.63098931312561035 106.251686096191406 169 155 118
-9.28004550933837891 -0.526235699653625488 106.250801086425781 138 108 54
-4.1512761116027832 -0.408183485269546509 106.248611450195312 135 110 56
-9.47451496124267578 -3.57541799545288086 106.267921447753906 131 105 54
1.30848181247711182 -3.46819734573364258 106.295768737792969 150 123 76
9.57440567016601562 -4.3116154670715332 106.196067810058594 156 133 89
-3.75812196731567383 -3.3088996410369873 106.298065185546875 185 162 119
14.1429481506347656 -5.33117198944091797 106.320808410644531 124 102 52
-2.92558193206787109 -0.460485488176345825 106.278976440429688 185 170 127
-1.53690242767333984 -5.35795497894287109 106.318016052246094 160 139 96
-0.18216821551322937 -3.62874031066894531 106.25067138671875 181 154 110
6.79560136795043945 -3.68662428855895996 106.297622680664062 174 152 102
-10.186772346496582 -3.57731771469116211 106.247817993164062 134 112 63
-11.0760860443115234 -4.08664083480834961 106.28759765625 164 142 93
-3.59905147552490234 -3.55541515350341797 106.310028076171875 151 129 71
7.40615510940551758 -3.55255317687988281 106.264480590820312 146 123 69
14.9193630218505859 -3.55963373184204102 106.229469299316406 149 132 88
-7.29906892776489258 -4.40050840377807617 106.264175415039062 176 159 114
0.662365078926086426 -3.51861095428466797 106.282501220703125 185 161 114
3.05967879295349121 -3.59778594970703125 106.265121459960938 151 128 78
2.2890775203704834 -3.51884675025939941 106.295234680175781 190 166 118
12.3135137557983398 -5.41895771026611328 106.264854431152344 159 135 87
-5.36354923248291016 -3.4836890697479248 106.29827880859375 137 115 66
-12.0525846481323242 -3.69237637519836426 106.196418762207031 122 97 53
-1.69534993171691895 -3.47850203514099121 106.323623657226562 161 148 102
6.73781538009643555 -4.11513805389404297 106.275840759277344 138 111 56
-5.85492515563964844 -3.42695832252502441 106.338493347167969 117 92 38
