ply
format ascii 1.0
element vertex 660
property float x
property float y
property float z
property uchar red
property uchar green
property uchar blue
end_header
-0.965497612953186035 4.81747722625732422 48.8513259887695312 0 0 0
2.80490708351135254 6.58871984481811523 50.7231216430664062 209 239 236
1.82794570922851562 1.9995720386505127 49.1502952575683594 151 136 129
-1.44939041137695312 2.27264237403869629 48.3416252136230469 161 172 178
0.439055681228637695 2.19750666618347168 49.8985862731933594 161 162 162
0.199055597186088562 0.233959183096885681 49.0019264221191406 131 116 116
3.43380522727966309 4.16410112380981445 49.5866470336914062 162 180 189
-0.433210968971252441 2.47955107688903809 48.7264785766601562 139 130 137
-0.950277566909790039 -1.43570530414581299 47.8341026306152344 163 166 165
0.254260063171386719 2.9985353946685791 48.9744606018066406 144 122 124
4.19987249374389648 6.94759607315063477 50.8200111389160156 142 133 128
2.79191493988037109 4.02540254592895508 49.493408203125 139 124 120
-3.36524081230163574 -1.15050756931304932 46.5831222534179688 149 151 150
-1.63980782032012939 0.113007977604866028 47.9283523559570312 133 129 121
-2.19122314453125 -1.61658108234405518 47.8013916015625 131 130 133
1.52848052978515625 6.20823478698730469 50.4209709167480469 142 131 125
-0.73702239990234375 -1.50776553153991699 47.9861488342285156 128 128 127
0.41770857572555542 0.173499375581741333 48.5484504699707031 131 121 112
-4.12825441360473633 0.81892859935760498 46.6694679260253906 145 147 146
-2.64685201644897461 2.62957072257995605 48.3267936706542969 136 138 137
-1.23441433906555176 2.40832114219665527 48.6275558471679688 199 242 248
-1.22728002071380615 2.49235200881958008 48.4706535339355469 134 119 122
2.14732742309570312 4.52476024627685547 49.5940322875976562 159 148 147
-1.21260190010070801 5.48694610595703125 49.3685379028320312 173 179 177
1.52605688571929932 2.81893491744995117 48.7529411315917969 116 100 100
4.2645411491394043 5.13449430465698242 50.266265869140625 161 160 156
-2.92634296417236328 3.05862331390380859 48.0479583740234375 125 120 114
-1.49169325828552246 3.37951469421386719 48.614959716796875 122 107 110
0.203323528170585632 5.14018917083740234 49.8388252258300781 121 110 108
-3.23415493965148926 -1.76301848888397217 46.9614791870117188 147 163 153
4.57046985626220703 -0.632194757461547852 49.4842605590820312 139 152 160
-0.887547671794891357 -1.50444912910461426 47.6446990966796875 130 120 121
-2.92550086975097656 2.1628262996673584 47.8109207153320312 144 131 123
-3.23497796058654785 2.80994963645935059 46.8394393920898438 141 133 131
-0.655929327011108398 1.29659724235534668 48.5934562683105469 140 129 123
1.65549671649932861 2.28650927543640137 49.252685546875 125 110 106
1.23967897891998291 7.03969717025756836 49.9085960388183594 146 131 124
1.80417323112487793 2.1523439884185791 49.10308837890625 149 130 123
-1.33225274085998535 2.40946054458618164 48.5943069458007812 134 122 124
7.25348234176635742 2.68011856079101562 51.1186485290527344 157 166 163
0.25996050238609314 4.19901847839355469 49.1641998291015625 203 228 225
3.2839202880859375 4.72513246536254883 49.6676368713378906 208 224 239
3.43842959403991699 1.04315090179443359 50.0285606384277344 131 116 113
-1.45703041553497314 2.73063826560974121 48.7652206420898438 186 206 205
-1.10046005249023438 -1.63503086566925049 47.6090469360351562 130 128 120
2.79992246627807617 2.60389280319213867 49.6616859436035156 133 116 109
0.309998929500579834 1.82629072666168213 48.3881340026855469 131 102 98
0.0449973419308662415 -0.612784504890441895 48.2684211730957031 130 110 109
0.130264073610305786 0.97625732421875 48.4184532165527344 131 117 117
3.29418039321899414 2.43229484558105469 49.5205764770507812 182 195 186
-2.4113771915435791 0.71563875675201416 47.912567138671875 147 147 139
-3.19029736518859863 6.6492924690246582 49.1574745178222656 166 180 180
1.69018328189849854 3.21653985977172852 49.0610618591308594 180 177 160
1.48524320125579834 1.76422977447509766 49.0184516906738281 116 86 84
1.77430474758148193 5.33800172805786133 49.7180442810058594 217 255 255
1.87399470806121826 0.695631623268127441 48.6810417175292969 177 180 171
0.0917532667517662048 0.578473448753356934 48.6005363464355469 179 185 193
0.0868986397981643677 0.613191425800323486 48.319915771484375 133 139 142
0.464092552661895752 1.01243758201599121 48.9493446350097656 136 132 126
3.95441746711730957 1.99335503578186035 49.5474853515625 163 152 148
2.31966519355773926 0.576213061809539795 49.5490913391113281 143 134 135
-0.19049641489982605 1.10639691352844238 48.7494659423828125 178 168 173
-2.10260868072509766 -1.31599235534667969 47.1417503356933594 144 159 157
1.57313704490661621 3.59892010688781738 48.7474365234375 147 134 125
-1.78426027297973633 2.26356720924377441 48.2985305786132812 246 255 255
-1.39472663402557373 3.20914316177368164 48.4401741027832031 135 128 118
-0.493204087018966675 0.62575453519821167 48.4473457336425781 124 120 114
1.76983213424682617 0.74090343713760376 49.0570640563964844 165 157 151
-3.5030825138092041 3.90966248512268066 48.1966361999511719 143 143 131
-1.14294636249542236 1.03573834896087646 48.33837890625 207 216 205
-0.741096735000610352 1.08318448066711426 48.587371826171875 239 255 255
-1.51723456382751465 1.33709132671356201 48.2877998352050781 168 163 156
2.91205859184265137 3.76231861114501953 50.0549430847167969 166 165 161
6.091033935546875 2.1902620792388916 48.7743797302246094 133 123 122
-1.73976874351501465 2.64300823211669922 48.03741455078125 146 152 150
-2.72703933715820312 -0.268624842166900635 47.0718116760253906 172 189 195
1.70707619190216064 1.75381946563720703 49.3811378479003906 157 141 130
1.82239890098571777 1.69210565090179443 48.9713325500488281 177 173 173
-1.06520593166351318 4.50873470306396484 49.5892333984375 124 109 102
3.12583231925964355 5.82260322570800781 50.4593086242675781 148 131 127
1.06906628608703613 5.63997697830200195 49.2468757629394531 197 195 196
-2.90223884582519531 1.78728413581848145 47.4583282470703125 198 200 197
0.531231284141540527 3.24207210540771484 48.9180946350097656 127 96 89
2.2304534912109375 5.33205318450927734 49.929168701171875 132 121 126
0.366851270198822021 6.48096179962158203 50.3255653381347656 185 175 166
-0.235433667898178101 1.92655086517333984 49.1734275817871094 152 160 158
2.14365220069885254 4.71594047546386719 48.8975715637207031 132 119 111
-0.145822480320930481 2.74935197830200195 48.7582283020019531 180 187 170
-1.61095905303955078 2.22317838668823242 48.2571067810058594 175 195 193
0.922567367553710938 2.1899864673614502 49.1240959167480469 254 255 255
2.2387545108795166 3.93829464912414551 49.5141029357910156 160 159 152
-2.30364274978637695 2.48749041557312012 48.1171150207519531 215 212 207
0.0372428297996520996 2.91590642929077148 48.9208908081054688 208 209 210
2.35060882568359375 7.23176479339599609 50.7380523681640625 144 139 133
2.00271463394165039 3.25519180297851562 49.7152824401855469 224 216 221
-1.38290047645568848 3.24503946304321289 48.5040283203125 232 249 236
-1.1543736457824707 3.20165419578552246 48.3975448608398438 242 251 248
-0.381856560707092285 3.3022463321685791 48.7883453369140625 213 220 213
-3.74668169021606445 4.05024385452270508 47.69757080078125 146 148 143
-3.54218482971191406 3.78363585472106934 48.2710838317871094 167 179 191
-0.500583112239837646 3.71861553192138672 49.115631103515625 232 232 229
0.275399595499038696 3.92377543449401855 49.2946205139160156 178 167 168
0.0696674957871437073 4.11614370346069336 49.05987548828125 217 219 211
1.71982502937316895 4.78923988342285156 49.7110557556152344 129 104 100
0.264956474304199219 4.17779874801635742 49.2269477844238281 110 100 104
2.68629717826843262 6.94091415405273438 50.3634109497070312 209 237 254
0.415862768888473511 4.13091325759887695 49.005523681640625 209 198 204
1.07568371295928955 2.03205108642578125 48.9340972900390625 222 235 228
-1.969573974609375 4.06817054748535156 48.9690513610839844 140 145 139
3.41748642921447754 4.77760934829711914 49.9045372009277344 142 135 129
2.67056655883789062 2.93108582496643066 49.3805198669433594 181 167 164
-1.51046693325042725 0.640626728534698486 47.8700714111328125 147 157 159
-1.13028967380523682 3.26038694381713867 48.8182029724121094 166 177 163
-2.89528727531433105 0.788642227649688721 47.2701759338378906 165 166 161
-2.00385856628417969 4.00427103042602539 48.852081298828125 145 140 131
-2.53458046913146973 0.817498922348022461 47.6763191223144531 160 163 154
0.831703424453735352 1.17740893363952637 48.9225044250488281 160 150 140
2.78429365158081055 2.92991280555725098 49.4976043701171875 149 139 138
-2.07556700706481934 1.36138522624969482 48.0513992309570312 177 177 176
-0.141992285847663879 1.74299824237823486 48.8467025756835938 166 159 149
-2.38677644729614258 1.77590596675872803 48.0782127380371094 174 172 175
-0.656230151653289795 2.39616823196411133 48.4124603271484375 110 97 97
-1.44203591346740723 2.1647179126739502 48.3822174072265625 129 155 168
-1.34309756755828857 2.1622016429901123 48.4142875671386719 235 255 255
3.11807107925415039 1.34472274780273438 49.7256622314453125 150 127 127
0.319223403930664062 2.1220850944519043 49.0222854614257812 182 172 160
1.47170984745025635 5.80878162384033203 49.6891517639160156 237 255 255
-2.01381897926330566 2.24541378021240234 48.2907867431640625 166 172 172
-0.894191920757293701 1.15234529972076416 48.5371170043945312 141 126 119
-1.86739397048950195 2.26229095458984375 48.3847885131835938 231 255 255
-1.44356191158294678 5.16493558883666992 49.1991958618164062 166 165 165
-1.70324552059173584 2.31096696853637695 48.2425041198730469 169 171 169
5.23686647415161133 2.36200237274169922 50.1448822021484375 129 117 121
0.522731423377990723 3.03341317176818848 49.2129707336425781 128 100 96
-1.56660938262939453 2.56805586814880371 48.1574134826660156 163 159 150
3.46764373779296875 2.66234803199768066 49.3763313293457031 150 140 141
-1.60689926147460938 2.98455953598022461 48.385009765625 189 184 178
0.956387817859649658 2.18181777000427246 48.6619453430175781 140 132 130
2.69135832786560059 5.58582592010498047 49.2197113037109375 138 127 123
0.25317150354385376 3.10972094535827637 48.9344940185546875 211 204 198
-2.01964664459228516 5.00418853759765625 49.9001541137695312 159 162 161
1.73209989070892334 3.73480129241943359 49.1538581848144531 179 168 174
-2.6519005298614502 2.47065544128417969 48.1958999633789062 139 130 121
-1.52571678161621094 3.31443548202514648 48.6265792846679688 225 237 232
-3.81802892684936523 3.27538156509399414 47.7157821655273438 147 156 163
0.789704561233520508 3.42697596549987793 49.3744659423828125 178 181 170
1.0426408052444458 5.19322013854980469 49.4603080749511719 138 133 137
1.49875187873840332 1.7353062629699707 51.4986991882324219 138 113 117
2.46940469741821289 0.0995607227087020874 49.0513954162597656 151 148 157
0.212712883949279785 2.81735706329345703 49.3333168029785156 143 128 125
-3.20670652389526367 3.70807552337646484 47.7429542541503906 199 212 205
-3.18309831619262695 3.74181723594665527 47.7105064392089844 147 152 144
0.0484057217836380005 4.33180713653564453 48.8065223693847656 163 144 136
-0.00319969072006642818 2.81687188148498535 49.0127334594726562 148 130 126
4.34520292282104492 0.0617983303964138031 49.1718673706054688 159 174 178
-3.10029149055480957 2.45310831069946289 46.6886177062988281 130 122 120
2.14333343505859375 4.52434444427490234 49.5950736999511719 150 135 127
1.76128256320953369 4.86059236526489258 49.416351318359375 117 100 93
0.74871140718460083 1.12929368019104004 48.9635009765625 136 121 116
-0.219089820981025696 3.43588113784790039 49.0651397705078125 233 255 250
-1.51521456241607666 0.569633662700653076 47.9715843200683594 148 146 147
2.33937501907348633 1.77731728553771973 49.3509979248046875 149 145 144
-0.393334627151489258 4.65061473846435547 49.4495353698730469 152 142 144
-2.03450417518615723 2.59322071075439453 48.7736854553222656 173 185 181
0.27760690450668335 1.98842287063598633 48.8705863952636719 152 140 128
3.94877743721008301 1.50315618515014648 49.6320915222167969 184 197 183
2.52727031707763672 5.42418861389160156 50.0948371887207031 183 197 210
-0.929019808769226074 7.1596832275390625 50.1347427368164062 167 172 165
1.73783063888549805 3.89402413368225098 49.4744453430175781 177 191 171
-1.37785065174102783 2.2061161994934082 48.1404762268066406 226 255 255
1.22969043254852295 2.50211668014526367 49.126434326171875 119 114 129
0.193944573402404785 -1.15525174140930176 48.0770606994628906 154 163 163
-4.49427700042724609 0.585794448852539062 46.8389015197753906 140 153 161
-0.947671592235565186 0.188696742057800293 48.2026596069335938 139 119 118
1.68007373809814453 -0.252766937017440796 48.93621826171875 146 146 144
-1.32238245010375977 0.72498786449432373 48.1979560852050781 153 151 149
-5.69542026519775391 2.56308197975158691 46.413665771484375 160 181 176
-1.59142720699310303 2.95654869079589844 48.5605354309082031 148 155 147
1.72807061672210693 3.40491247177124023 49.3728561401367188 162 151 141
1.54099583625793457 2.57908964157104492 49.2381668090820312 131 113 101
-3.54414534568786621 3.61505579948425293 48.02166748046875 157 163 161
1.37886881828308105 3.9116053581237793 49.3904571533203125 151 139 127
-1.69074690341949463 3.92103099822998047 48.8096733093261719 157 152 146
0.205140143632888794 1.78268277645111084 48.7943992614746094 131 96 90
1.94389247894287109 5.02933597564697266 48.8970603942871094 130 118 115
1.75372219085693359 1.12015938758850098 48.9900283813476562 173 181 193
-1.61740386486053467 3.91381692886352539 48.4545974731445312 158 154 153
2.18953227996826172 5.16286468505859375 49.6456222534179688 186 188 189
-3.72791099548339844 4.13455915451049805 47.79510498046875 163 172 169
1.31689572334289551 4.47757339477539062 49.1459922790527344 110 96 85
-0.90109020471572876 0.852187991142272949 48.1157455444335938 133 127 127
-1.79015457630157471 2.5938572883605957 47.9300956726074219 146 128 129
0.655094742774963379 3.10182762145996094 48.7189216613769531 127 118 123
-1.71120369434356689 1.88467144966125488 47.9683570861816406 142 141 136
-0.902354896068572998 5.22677421569824219 48.3617095947265625 142 117 112
-1.71525609493255615 2.65947270393371582 48.1632843017578125 157 169 169
-2.9733741283416748 2.97635269165039062 47.8650550842285156 164 165 159
-1.46715414524078369 3.34067821502685547 48.4935073852539062 144 133 131
-0.660830080509185791 5.4176945686340332 49.5220947265625 154 129 124
-0.0532898716628551483 3.80056190490722656 48.9171676635742188 154 136 129
0.321917831897735596 2.86798572540283203 48.8436012268066406 151 138 129
1.72978818416595459 3.87447142601013184 49.3072776794433594 148 144 132
-0.786448538303375244 3.91816329956054688 48.6409530639648438 158 153 149
0.444199651479721069 4.02927589416503906 49.0161285400390625 128 99 105
0.515148758888244629 4.66403007507324219 49.1999130249023438 157 144 136
2.06032919883728027 4.77879190444946289 50.0164833068847656 153 146 143
-0.0503567606210708618 0.490241855382919312 48.5835380554199219 140 135 132
-3.92941880226135254 0.583042442798614502 47.4941177368164062 153 162 163
-2.72567987442016602 1.62769961357116699 48.2739181518554688 155 147 144
-1.26573669910430908 4.60039091110229492 48.87689208984375 140 115 111
-0.950605869293212891 1.58813858032226562 48.6123809814453125 146 151 145
-3.14587855339050293 1.74689257144927979 47.3052825927734375 156 161 168
-4.98812580108642578 2.69492244720458984 46.4299354553222656 144 158 159
-1.15409326553344727 3.52885723114013672 48.4386215209960938 158 144 141
-4.76928091049194336 3.59269881248474121 46.9826889038085938 157 171 173
-2.83723831176757812 4.21839094161987305 47.9558372497558594 171 187 186
-0.810862302780151367 1.03243887424468994 48.4828376770019531 139 122 115
-0.567406415939331055 1.01314795017242432 34.7339897155761719 208 228 235
-2.3050997257232666 1.2027742862701416 47.4999809265136719 133 124 119
-1.37530839443206787 2.22145533561706543 48.4293098449707031 225 255 255
3.64786934852600098 3.50382423400878906 49.4410400390625 144 129 124
-5.25898981094360352 2.92060351371765137 46.2745704650878906 139 146 139
-1.15602767467498779 4.61080646514892578 48.9949455261230469 120 100 102
4.99494075775146484 2.99192667007446289 49.6169090270996094 150 137 131
0.416178703308105469 4.11482667922973633 49.4249458312988281 185 193 208
-0.289707481861114502 0.723465919494628906 48.64044189453125 138 121 113
-2.91815757751464844 2.10780906677246094 47.7901763916015625 143 130 124
-0.643919587135314941 2.14944148063659668 47.9782867431640625 106 91 97
-0.373390346765518188 2.21367216110229492 48.5283393859863281 123 112 110
-3.28704023361206055 3.01014900207519531 47.5460777282714844 146 137 135
-1.11560428142547607 2.57654762268066406 48.9716796875 196 197 202
-1.18558156490325928 3.29754471778869629 48.1471748352050781 140 118 117
1.74075567722320557 3.51728224754333496 49.2907829284667969 131 104 93
-0.271206557750701904 2.66152620315551758 49.4822349548339844 155 147 138
-3.87451076507568359 3.8913567066192627 47.7570686340332031 146 147 140
-1.20193254947662354 4.07908296585083008 48.67938232421875 135 140 136
1.92901062965393066 4.75070619583129883 49.5875701904296875 122 104 95
2.0461885929107666 1.81239783763885498 49.2869300842285156 136 128 125
-3.01774239540100098 2.47561240196228027 48.2898445129394531 127 114 123
-1.63877010345458984 2.05169081687927246 48.103790283203125 219 255 255
-2.61722087860107422 2.40049982070922852 47.5511245727539062 140 123 122
-0.38641279935836792 2.3893892765045166 48.3872718811035156 142 144 132
1.06359529495239258 -0.424116015434265137 48.7104110717773438 158 167 164
1.52467906475067139 3.79607892036437988 49.7955322265625 129 101 88
-1.70017790794372559 1.66321706771850586 47.5841827392578125 137 127 125
1.35425937175750732 -1.00977194309234619 48.5913276672363281 148 153 147
0.0431227758526802063 2.34433937072753906 48.4225273132324219 123 109 106
2.18804121017456055 4.83532905578613281 49.6729202270507812 132 119 116
-1.27598738670349121 3.7362663745880127 48.3831748962402344 119 104 99
0.739342629909515381 6.14283561706542969 49.9681816101074219 157 146 140
-0.0281907375901937485 4.57930517196655273 49.0448570251464844 113 91 97
-0.979942619800567627 1.82575392723083496 46.5965423583984375 112 96 97
0.963091015815734863 2.2498779296875 49.0741539001464844 134 122 105
0.668845891952514648 2.49204397201538086 48.6924552917480469 118 99 98
0.795720219612121582 4.20778036117553711 49.4051284790039062 112 92 85
0.160532623529434204 4.16885232925415039 49.1437225341796875 140 125 119
2.24131393432617188 5.61251115798950195 49.9527740478515625 146 136 135
-2.15095734596252441 3.13779282569885254 47.536529541015625 126 110 116
-4.59051370620727539 2.68763589859008789 47.0604591369628906 76 83 87
0.923075616359710693 2.88556385040283203 49.2788467407226562 131 118 116
-3.40978312492370605 -0.860683679580688477 47.3823127746582031 129 128 123
0.0324764549732208252 4.44021272659301758 48.6860389709472656 112 96 96
0.799174904823303223 3.51779413223266602 49.1220932006835938 144 130 114
-2.10372018814086914 -1.29344797134399414 47.5494804382324219 143 149 152
0.233833417296409607 4.1508026123046875 49.0408706665039062 233 242 241
-2.31526565551757812 1.64481949806213379 48.0288887023925781 156 152 144
2.83468079566955566 4.82578563690185547 49.9370307922363281 147 138 133
-0.859092473983764648 5.26117086410522461 48.9303779602050781 156 149 141
1.91753745079040527 1.78362870216369629 49.388885498046875 130 117 109
0.931852579116821289 4.63268756866455078 49.10845947265625 140 127 120
0.0869772434234619141 3.67223262786865234 48.9172744750976562 139 117 117
2.68774104118347168 7.16761016845703125 49.9819526672363281 150 161 169
-0.380513578653335571 4.57861948013305664 48.7057952880859375 159 145 146
1.45388710498809814 4.65312385559082031 49.6977043151855469 119 110 103
-2.66498661041259766 -1.76174938678741455 47.2320404052734375 122 122 122
-0.204876318573951721 3.45672416687011719 49.1219673156738281 195 208 216
2.32920026779174805 5.57968854904174805 50.5257377624511719 132 126 123
-0.0317727886140346527 -0.71585923433303833 9.71197891235351562 192 192 194
-1.62093567848205566 2.80974102020263672 48.0808753967285156 223 255 255
0.495293021202087402 1.95328938961029053 48.9739036560058594 121 109 114
0.388324648141860962 3.98800444602966309 49.0030479431152344 176 160 160
0.226043656468391418 4.10439252853393555 48.6154594421386719 240 240 246
0.174282923340797424 4.22689056396484375 49.0575218200683594 166 167 155
-1.28819417953491211 2.25127029418945312 48.0559272766113281 138 134 135
1.30139708518981934 4.74162864685058594 49.7618217468261719 168 167 162
-0.828868210315704346 4.85022115707397461 48.7935066223144531 172 168 163
-3.39988327026367188 1.21183609962463379 47.5171585083007812 151 157 155
-1.6371382474899292 2.76401376724243164 48.0739364624023438 221 255 255
0.879009485244750977 1.39605069160461426 48.7519645690917969 160 147 141
1.20748090744018555 2.3532097339630127 48.9963569641113281 143 131 141
-4.60099220275878906 3.81049418449401855 46.7761955261230469 158 166 168
2.31786322593688965 3.99089264869689941 49.2977714538574219 170 168 155
0.272735178470611572 -0.0653574094176292419 48.3249320983886719 152 161 176
-5.49761962890625 2.78573870658874512 46.2562026977539062 162 181 175
-2.08691072463989258 3.93073201179504395 48.3617439270019531 142 142 134
2.89793825149536133 4.14290237426757812 49.622100830078125 155 160 160
0.204186931252479553 4.18415021896362305 49.6365890502929688 139 121 123
-3.64080929756164551 4.81676054000854492 47.8680534362792969 153 166 159
-0.294261902570724487 2.68545150756835938 49.1301155090332031 140 148 143
-3.51993322372436523 3.84491157531738281 47.5818710327148438 148 147 142
-4.60345792770385742 2.5420076847076416 46.6673927307128906 142 145 143
1.6670069694519043 0.777504920959472656 49.158111572265625 120 107 101
-3.57258796691894531 3.31883907318115234 47.6175308227539062 145 141 137
-2.87056851387023926 4.06354951858520508 47.2708015441894531 156 172 169
-4.92486667633056641 5.82889413833618164 48.309326171875 134 134 132
-0.168019458651542664 0.770275354385375977 48.7713890075683594 137 121 121
-1.48928773403167725 2.37486743927001953 47.8301506042480469 139 125 116
-0.38854825496673584 2.4245755672454834 49.1519317626953125 150 150 148
-0.170677617192268372 3.09479308128356934 48.6854362487792969 111 95 96
-2.59538912773132324 2.90053391456604004 47.6638832092285156 125 115 116
-1.01167571544647217 1.35797810554504395 49.059112548828125 152 171 165
1.13188755512237549 5.57979631423950195 49.8673286437988281 151 141 139
-5.70246791839599609 4.02373123168945312 47.2135391235351562 156 172 171
-3.6009528636932373 2.33929181098937988 47.2889366149902344 0 0 0
-1.26030313968658447 0.802834033966064453 48.2691574096679688 150 177 172
-0.488076001405715942 3.71146225929260254 49.0638427734375 188 181 173
-1.37893104553222656 2.27882742881774902 48.6172981262207031 148 177 221
-4.86391448974609375 1.59766066074371338 46.2475967407226562 127 127 127
1.27738308906555176 2.51043224334716797 49.0720481872558594 168 154 167
0.861356556415557861 0.335545003414154053 48.6799850463867188 157 156 152
-1.26209592819213867 3.7534022331237793 48.4807014465332031 124 108 112
2.44479632377624512 7.24771881103515625 50.1666526794433594 191 224 223
-0.802064716815948486 0.948229789733886719 48.242706298828125 202 219 209
3.15776181221008301 0.569355905055999756 48.9080162048339844 189 204 224
0.425371140241622925 0.131865769624710083 48.6142196655273438 126 123 116
-0.969298243522644043 -0.608926713466644287 48.3642692565917969 150 150 147
-0.878276824951171875 -0.344195395708084106 48.2984466552734375 159 161 160
-2.02919220924377441 -2.23343372344970703 47.5789833068847656 154 171 178
-1.17888927459716797 0.147767066955566406 48.8577384948730469 149 137 137
0.496681749820709229 4.26567840576171875 49.01885986328125 109 77 78
-0.386799991130828857 0.696717619895935059 48.4474143981933594 138 131 127
-1.40972328186035156 5.15697145462036133 49.459686279296875 155 146 151
0.12581440806388855 -1.14549112319946289 48.066162109375 135 138 138
2.36053752899169922 1.10963821411132812 48.8513069152832031 143 131 131
-1.60221552848815918 2.26730751991271973 48.0827293395996094 136 132 129
-4.03122854232788086 -1.46023213863372803 47.2819900512695312 134 144 136
-3.25010490417480469 -0.421890854835510254 47.46441650390625 141 143 137
-4.68942117691040039 0.656494259834289551 48.4488945007324219 151 170 164
0.911278903484344482 6.68494653701782227 49.6121826171875 147 151 159
2.06908082962036133 2.6116325855255127 49.3455924987792969 140 126 117
-4.67073249816894531 2.99146747589111328 46.4994621276855469 148 141 135
-0.602470457553863525 0.128546789288520813 48.1884498596191406 133 119 118
0.127671539783477783 4.17338705062866211 49.0766525268554688 139 132 121
-1.64744508266448975 3.73795628547668457 49.18560791015625 128 113 116
-0.873816370964050293 -1.61632966995239258 47.5894393920898438 134 126 125
-0.909741044044494629 -1.2554398775100708 47.843414306640625 128 118 116
-1.62761139869689941 -0.080705396831035614 48.001220703125 142 163 142
0.115312077105045319 3.34372735023498535 48.5821495056152344 113 91 96
-2.23920941352844238 -0.462279230356216431 47.8101615905761719 127 119 117
-1.13880956172943115 -1.31352782249450684 47.9869880676269531 174 170 171
2.90452980995178223 3.85132694244384766 49.5054397583007812 149 163 160
-4.64124202728271484 -1.84341561794281006 46.9191246032714844 166 172 170
2.78768420219421387 1.50434064865112305 49.0512847900390625 166 170 170
-1.34974169731140137 -1.1210256814956665 48.0136222839355469 148 147 143
-1.33685696125030518 0.434550881385803223 48.24407958984375 175 173 194
-2.31516575813293457 -1.58988523483276367 47.6149940490722656 150 166 155
-0.0529127605259418488 0.582544326782226562 48.3522529602050781 218 255 255
1.63438200950622559 1.15746712684631348 49.0070152282714844 141 123 121
0.941651463508605957 -1.25887906551361084 48.5126190185546875 132 147 142
0.0836444869637489319 5.9847722053527832 49.7829780578613281 165 154 150
-4.02780532836914062 -1.76362133026123047 47.0350608825683594 135 151 148
-0.608781039714813232 -1.32485592365264893 47.9025726318359375 139 155 152
-5.03942584991455078 0.430985987186431885 47.0818290710449219 128 122 132
1.23154079914093018 -0.283686965703964233 48.6899261474609375 143 143 145
1.73125982284545898 -1.09126186370849609 49.0004310607910156 135 136 138
-1.48790955543518066 5.40299749374389648 49.5914421081542969 155 146 141
-5.20225858688354492 4.92844438552856445 47.2496757507324219 158 171 179
0.36485975980758667 0.385356932878494263 48.5687637329101562 154 163 162
-3.18135881423950195 2.27446508407592773 48.2029342651367188 147 153 148
-0.0222016815096139908 1.42727792263031006 48.5972709655761719 169 175 169
-0.160825490951538086 -1.63732230663299561 47.37750244140625 140 140 140
-0.385409832000732422 4.6097254753112793 49.257781982421875 157 146 143
0.0664358064532279968 -1.69626212120056152 47.5355758666992188 114 114 116
4.91809272766113281 2.57145881652832031 49.5075454711914062 156 159 164
1.02373683452606201 -1.39370965957641602 47.8423538208007812 115 109 115
1.30611014366149902 4.66774845123291016 49.277618408203125 142 132 132
1.57678675651550293 2.66362690925598145 48.6529579162597656 127 139 139
1.66292762756347656 -0.324683308601379395 48.6391334533691406 136 135 133
-3.93346333503723145 -1.6697545051574707 46.9967536926269531 138 144 144
0.352333188056945801 5.12463808059692383 50.3251838684082031 141 128 119
0.470380157232284546 -1.57662415504455566 48.090484619140625 113 113 115
-3.81299257278442383 4.12569856643676758 48.0964775085449219 147 148 146
0.470380157232284546 -1.57662415504455566 48.090484619140625 113 113 115
-1.39395022392272949 2.27500653266906738 48.7197113037109375 161 173 174
-3.55918669700622559 2.84941840171813965 48.1034736633300781 138 146 139
-1.5047457218170166 1.2646937370300293 26.8040485382080078 182 181 182
-0.580608963966369629 0.835505187511444092 48.6003456115722656 162 175 165
-3.24059963226318359 3.73197150230407715 47.8527488708496094 173 185 183
0.643062233924865723 3.98313212394714355 50.0862045288085938 108 87 84
1.65239095687866211 2.83071684837341309 49.2402458190917969 120 107 104
-3.31990885734558105 3.15545535087585449 47.8324089050292969 144 149 142
-3.19398999214172363 3.08311033248901367 47.6638069152832031 153 170 162
-4.83797836303710938 1.11123180389404297 48.3436164855957031 155 160 163
-0.686734676361083984 0.169736847281455994 48.2461891174316406 137 126 122
1.21261322498321533 4.50958633422851562 49.6029472351074219 111 88 82
-0.383276462554931641 0.628330230712890625 48.4913558959960938 167 187 190
-2.9729611873626709 1.43408203125 47.7823257446289062 152 152 146
0.522514224052429199 4.47469663619995117 49.4577598571777344 146 130 125
-2.00904488563537598 2.29424643516540527 48.3791923522949219 160 162 157
4.13635635375976562 1.43187952041625977 49.4850196838378906 161 173 173
-1.38461053371429443 2.06646418571472168 48.0724639892578125 143 141 138
1.82821810245513916 2.32685685157775879 49.2210235595703125 146 133 124
-2.77119922637939453 -0.880289256572723389 47.06170654296875 148 168 161
1.68485355377197266 1.81562149524688721 48.8154220581054688 126 95 92
-2.93239116668701172 1.67422616481781006 47.8497581481933594 142 131 125
0.595336556434631348 7.82456159591674805 50.8025627136230469 145 136 137
2.03251910209655762 1.79536426067352295 49.0237007141113281 150 142 129
2.49866509437561035 1.22733652591705322 49.0905303955078125 155 156 151
-3.99042367935180664 3.13662314414978027 47.4553947448730469 166 179 186
1.53845393657684326 2.31894898414611816 49.457183837890625 122 89 84
-2.28669476509094238 4.97943353652954102 48.7143974304199219 152 159 151
-1.82257401943206787 4.17911958694458008 48.9657440185546875 224 250 255
-0.617156028747558594 0.418805152177810669 48.2076301574707031 137 117 110
-2.84299778938293457 2.23565912246704102 47.7420997619628906 160 165 169
-4.48472833633422852 0.439825922250747681 47.2141494750976562 144 150 155
-3.55607008934020996 2.97490382194519043 47.7221908569335938 146 152 146
1.95974040031433105 3.83607578277587891 49.2205543518066406 161 166 162
-3.94658565521240234 0.663065075874328613 47.1616249084472656 157 174 173
-4.6432342529296875 3.53874015808105469 47.8348045349121094 158 166 168
1.86971199512481689 1.76824891567230225 48.987274169921875 159 153 152
-3.67091870307922363 3.13830447196960449 47.8258476257324219 184 222 235
0.648858010768890381 -1.55616080760955811 48.5320472717285156 116 110 112
-3.66567420959472656 3.12727713584899902 47.7433967590332031 184 222 235
-1.63558280467987061 4.93310117721557617 48.9530792236328125 154 158 157
1.6527247428894043 2.78651237487792969 49.3553848266601562 116 104 100
-4.94344711303710938 2.07713437080383301 46.9579238891601562 165 194 198
1.130074143409729 2.39594364166259766 48.9689979553222656 118 91 101
-5.06291866302490234 2.33199739456176758 46.8619575500488281 143 145 144
0.6319161057472229 1.04253077507019043 48.7435379028320312 192 196 199
-0.856540560722351074 3.89478278160095215 48.6518783569335938 130 125 123
0.284515023231506348 4.72632789611816406 48.5201377868652344 113 97 100
-0.982990741729736328 2.51140236854553223 48.4742546081542969 144 133 127
0.866841375827789307 4.69662618637084961 49.217376708984375 136 118 106
0.872710466384887695 4.70939779281616211 49.2876091003417969 136 118 106
1.63309359550476074 -0.409025222063064575 49.06292724609375 161 166 170
0.828059136867523193 5.07201385498046875 48.6452903747558594 105 89 91
0.0988287553191184998 2.1399986743927002 48.900421142578125 147 140 132
-4.80969858169555664 0.176095634698867798 46.4987602233886719 151 167 161
1.30864036083221436 2.6628415584564209 49.2634086608886719 111 87 92
-1.75146329402923584 2.09969806671142578 47.9397506713867188 176 196 195
-2.95942544937133789 1.85738110542297363 47.3377456665039062 118 128 134
-1.71035087108612061 2.11661052703857422 48.0020751953125 146 169 172
-1.52499854564666748 3.8457636833190918 48.3381881713867188 152 148 149
-2.08321213722229004 3.88423728942871094 48.6991920471191406 178 182 175
-3.89305305480957031 1.34236371517181396 47.2161483764648438 150 168 167
-0.466676771640777588 2.19092512130737305 48.0221366882324219 139 134 131
1.1203153133392334 5.01591110229492188 49.4573860168457031 145 132 123
-4.9843134880065918 2.05517697334289551 58.7478103637695312 161 161 162
-4.45139408111572266 0.610139906406402588 47.1785812377929688 151 165 168
1.70378315448760986 3.78285598754882812 49.3514556884765625 127 113 100
-4.10630655288696289 3.67297887802124023 47.9037322998046875 166 182 179
1.69754385948181152 4.82117986679077148 49.7588996887207031 122 97 92
-1.50365650653839111 0.950292348861694336 48.526092529296875 88 81 80
3.02400588989257812 4.90517520904541016 49.8031234741210938 203 215 213
-1.1633915901184082 0.998719990253448486 47.8198394775390625 159 163 158
0.114452257752418518 3.32379508018493652 48.0601615905761719 116 97 93
-2.18191623687744141 3.99391317367553711 48.6082801818847656 157 162 157
-4.5861811637878418 1.06619846820831299 46.0542793273925781 138 157 172
2.01862621307373047 3.64924240112304688 49.0268211364746094 130 112 102
0.992750346660614014 3.63281154632568359 50.1336860656738281 135 117 101
-1.97846817970275879 3.84351277351379395 48.5235710144042969 159 161 159
-0.695598244667053223 -1.74311590194702148 48.2399520874023438 143 147 146
-0.240701198577880859 6.04822206497192383 49.9649314880371094 193 192 188
-0.106707736849784851 5.43054819107055664 49.4711380004882812 148 151 146
0.347351163625717163 0.363165050745010376 48.4017295837402344 155 167 155
1.98755097389221191 1.51116943359375 49.425140380859375 133 106 105
-1.11074149608612061 1.42009496688842773 48.2554092407226562 135 155 144
-0.865270614624023438 2.37197709083557129 48.6281776428222656 153 147 136
-1.67711687088012695 2.63669800758361816 47.6195259094238281 147 149 143
-3.83044338226318359 3.16094970703125 47.6477432250976562 148 148 148
-1.82742857933044434 4.11575937271118164 48.4534912109375 157 163 159
-1.42874860763549805 4.15713214874267578 49.0764846801757812 144 158 167
-3.84022188186645508 3.40176057815551758 49.5606460571289062 145 160 158
0.279419213533401489 -0.0651150643825531006 48.330810546875 157 167 187
-4.95287513732910156 4.53888750076293945 47.64862060546875 158 172 172
1.61819148063659668 5.92618179321289062 50.0707359313964844 154 180 183
-1.8138653039932251 1.94934606552124023 48.5081672668457031 174 190 190
-5.53408718109130859 0.207677885890007019 46.1430549621582031 134 130 131
-0.544968008995056152 3.70407938957214355 48.9491996765136719 146 132 132
-3.34222722053527832 5.44978189468383789 48.3027534484863281 152 167 160
-0.029164385050535202 4.57859373092651367 49.0141372680664062 113 91 93
-0.558171212673187256 4.24948596954345703 48.5952911376953125 116 95 100
-3.08085870742797852 4.85239124298095703 48.3203964233398438 145 135 125
-3.03750944137573242 4.72900485992431641 47.3550338745117188 145 135 125
-0.413915276527404785 0.620095252990722656 48.5106201171875 165 152 152
-1.04739761352539062 0.602766692638397217 12.9401121139526367 178 191 191
2.21526718139648438 6.8338775634765625 49.932342529296875 135 120 114
-1.68287086486816406 2.02696323394775391 48.0948104858398438 157 168 160
0.964047491550445557 3.74815630912780762 49.1784133911132812 138 137 121
0.0363794304430484772 2.89205622673034668 49.0285301208496094 115 105 105
0.370989412069320679 0.669830262660980225 48.6832466125488281 164 162 149
-1.36635160446166992 3.3612523078918457 48.9204521179199219 140 136 127
-4.1257319450378418 3.58911776542663574 47.7421379089355469 116 139 159
-1.22997355461120605 2.39702987670898438 48.6604194641113281 217 250 252
1.54527521133422852 1.86427700519561768 49.1600990295410156 110 81 86
2.07059311866760254 1.76087856292724609 49.2856559753417969 120 121 113
-1.90868043899536133 2.64868783950805664 48.4769096374511719 224 255 255
2.0653228759765625 1.81742310523986816 49.2892379760742188 133 128 122
1.70763671398162842 2.15859556198120117 49.2642364501953125 120 112 124
-1.76831352710723877 2.11879587173461914 48.2034873962402344 197 207 206
0.239694207906723022 3.10668301582336426 48.9892196655273438 174 153 148
0.901422679424285889 2.26064252853393555 49.0926704406738281 186 173 157
1.46548676490783691 2.57282686233520508 49.4140472412109375 122 132 124
0.0166676286607980728 2.94475221633911133 48.9587631225585938 118 115 107
-1.39985501766204834 3.29555845260620117 48.6140098571777344 143 162 156
2.03294897079467773 1.87078845500946045 49.3033866882324219 198 187 182
2.14133048057556152 2.34005403518676758 49.4311943054199219 171 162 167
-1.8983234167098999 1.37165570259094238 48.2052574157714844 134 124 122
1.5404285192489624 2.62435412406921387 49.1048812866210938 234 234 234
-1.20378303527832031 -1.8246924877166748 48.0940055847167969 133 133 133
1.51184213161468506 2.63947343826293945 49.1575813293457031 125 113 97
1.73788905143737793 2.72696137428283691 49.318511962890625 126 114 109
2.3452756404876709 5.58226108551025391 49.7517776489257812 141 141 139
-1.8003007173538208 2.57248234748840332 48.4178657531738281 185 195 191
-1.5987018346786499 2.7147374153137207 48.2896270751953125 186 188 183
-2.02038764953613281 2.90244460105895996 48.3365478515625 141 131 130
2.34557533264160156 3.91318845748901367 49.5140571594238281 160 156 155
1.21926736831665039 1.62767124176025391 49.1809616088867188 145 114 110
-1.48618543148040771 4.05988836288452148 48.8617630004882812 157 158 157
-4.10867214202880859 3.61220932006835938 47.1561241149902344 146 146 144
0.0952689796686172485 4.11186790466308594 49.2858848571777344 125 124 122
3.07954597473144531 3.18399167060852051 49.7884559631347656 107 96 98
2.31639599800109863 4.55338096618652344 49.8057670593261719 195 180 183
1.35736191272735596 4.72428274154663086 49.6481246948242188 201 197 198
1.36600422859191895 4.72974634170532227 49.730621337890625 201 197 198
1.4603731632232666 4.7020869255065918 49.642059326171875 195 192 192
2.50786662101745605 0.827013373374938965 48.9144172668457031 148 138 139
1.85242259502410889 1.7502673864364624 49.2788124084472656 132 117 110
-2.71807050704956055 2.0686798095703125 47.9780502319335938 175 166 165
3.32227206230163574 5.58268642425537109 49.5959892272949219 212 223 231
0.959887087345123291 2.19272017478942871 49.1809043884277344 128 120 131
-1.67717146873474121 2.66177797317504883 48.7468032836914062 142 142 140
1.02413308620452881 3.72480130195617676 48.9090194702148438 159 146 137
1.38159596920013428 3.9079582691192627 49.3877639770507812 150 142 128
1.41982567310333252 3.93095088005065918 49.3006248474121094 128 119 112
-0.827305972576141357 4.87348508834838867 49.041900634765625 177 172 167
0.7001534104347229 4.92654323577880859 49.4106407165527344 164 154 152
-0.292574316263198853 2.81389045715332031 49.06817626953125 113 94 103
0.7001534104347229 4.92654323577880859 49.4106407165527344 164 154 152
-1.57163560390472412 4.9756317138671875 48.1394081115722656 127 108 112
-2.40279006958007812 6.53282880783081055 49.5234298706054688 159 173 173
0.805297970771789551 3.63109660148620605 49.1095657348632812 129 106 92
1.54202234745025635 4.12473821640014648 49.61285400390625 244 253 252
2.25338983535766602 3.95812654495239258 49.7233695983886719 175 175 171
0.553962469100952148 4.4249577522277832 49.3564872741699219 141 121 126
2.30236005783081055 5.29071807861328125 49.4895477294921875 147 133 129
1.98769426345825195 4.75192165374755859 49.4856834411621094 121 112 105
1.33935105800628662 1.94078409671783447 49.1354141235351562 128 99 101
0.972661137580871582 3.77867460250854492 49.4174118041992188 134 118 102
2.29252481460571289 3.93774819374084473 49.4271049499511719 131 122 113
-0.713314294815063477 1.45072293281555176 48.3145179748535156 145 147 142
-3.57412481307983398 4.05013036727905273 48.2633781433105469 144 153 148
-1.65612328052520752 2.2657158374786377 48.3353347778320312 141 136 133
-1.64022839069366455 2.9050133228302002 48.4910736083984375 150 137 137
0.588180661201477051 4.49827241897583008 49.2677688598632812 128 101 94
-1.59519171714782715 3.18988466262817383 48.5657005310058594 138 123 115
2.2609100341796875 4.43315410614013672 49.595306396484375 126 107 98
2.02092671394348145 2.48461198806762695 49.208953857421875 124 105 99
0.333069175481796265 4.62662601470947266 49.509979248046875 135 107 96
0.299761980772018433 5.89381217956542969 49.5757942199707031 146 139 131
0.952294707298278809 3.59883213043212891 49.5242042541503906 131 108 92
-4.65587663650512695 3.47518420219421387 48.592987060546875 144 132 132
-1.52788674831390381 1.95384275913238525 48.6005210876464844 141 131 130
-1.04366421699523926 1.94264543056488037 47.6918182373046875 116 101 104
-1.09225571155548096 5.580078125 49.5851707458496094 154 137 130
-3.60529899597167969 2.29286718368530273 47.1089630126953125 126 124 124
1.22966933250427246 1.93916499614715576 48.4439659118652344 134 108 109
0.483737438917160034 1.68262267112731934 48.8239784240722656 192 187 194
1.48203527927398682 3.93701934814453125 49.422088623046875 107 107 104
-0.868107020854949951 2.62393927574157715 48.8668403625488281 134 126 124
3.64621448516845703 4.57207679748535156 49.7389297485351562 163 169 165
-1.33037900924682617 2.03670239448547363 47.9494056701660156 157 162 170
-2.60804915428161621 2.71312880516052246 45.7443504333496094 128 116 118
0.949524879455566406 0.91987532377243042 21.2632732391357422 194 213 229
-1.1141819953918457 -1.46888935565948486 47.6895103454589844 153 169 170
1.53855609893798828 1.68600642681121826 49.0488357543945312 110 95 97
0.275095194578170776 0.497520565986633301 48.4146003723144531 153 158 144
-0.866323530673980713 -0.347046345472335815 47.9830894470214844 153 155 150
-3.69350934028625488 3.70067811012268066 48.4160652160644531 146 144 132
-4.86474704742431641 3.93513774871826172 47.0288009643554688 165 181 181
2.6664278507232666 0.210690006613731384 49.2521820068359375 0 0 0
-2.10251665115356445 -1.88699769973754883 47.3824043273925781 148 152 151
-0.721368312835693359 -1.62562155723571777 48.0407180786132812 147 153 151
-1.39032506942749023 -1.86890280246734619 47.6920928955078125 148 159 158
-0.718873023986816406 -1.61472237110137939 47.9489860534667969 147 153 151
-1.43912231922149658 -1.62934637069702148 47.5932960510253906 148 163 156
0.984140694141387939 3.39977836608886719 49.1203117370605469 171 177 165
-4.78433656692504883 2.31047940254211426 47.0208587646484375 163 185 183
2.76866507530212402 2.09271430969238281 49.8076667785644531 150 151 146
-3.95802855491638184 -0.462672531604766846 47.1497344970703125 146 161 151
-3.09288978576660156 1.30888462066650391 47.4257774353027344 149 156 154
2.96133828163146973 -0.545631170272827148 49.080169677734375 134 140 138
2.95795083045959473 -0.556264996528625488 49.108612060546875 134 140 138
4.88669776916503906 0.118106856942176819 49.5814628601074219 159 175 175
3.44959926605224609 4.69749879837036133 49.8238143920898438 180 186 184
-4.00661468505859375 -1.62943339347839355 46.8085517883300781 151 181 175
2.61930084228515625 3.05199241638183594 49.4020004272460938 107 91 94
-1.63658320903778076 4.09204959869384766 48.8743171691894531 156 143 137
-2.84076833724975586 2.25458002090454102 48.2596015930175781 148 150 147
-2.74565601348876953 1.61470556259155273 47.8961448669433594 123 118 118
0.610607802867889404 1.79433822631835938 48.778533935546875 144 135 141
0.0380864106118679047 0.78531879186630249 48.4370689392089844 160 160 159
1.38393998146057129 2.21161770820617676 49.2253341674804688 111 78 87
1.74150931835174561 7.24110746383666992 50.4037590026855469 135 122 116
-4.34971952438354492 1.80660903453826904 47.5840110778808594 120 117 116
-0.345458924770355225 0.293535679578781128 5.51602458953857422 141 133 130
-0.247458219528198242 0.509924232959747314 48.0201225280761719 155 156 156
0.143384277820587158 4.16988611221313477 49.2773094177246094 158 159 154
3.08276796340942383 1.54709851741790771 48.8492698669433594 144 149 143
1.27432370185852051 2.17280435562133789 29.9274463653564453 134 130 118
0.149273127317428589 -0.109736718237400055 48.4221076965332031 190 193 203
-0.208508551120758057 1.00703418254852295 48.6071128845214844 136 118 111
0.962655305862426758 3.33086299896240234 49.2309532165527344 137 121 111
0.317895114421844482 2.92797470092773438 48.9190444946289062 186 170 169
-4.85755729675292969 3.0885622501373291 47.5439872741699219 141 134 132
1.66917824745178223 3.78080296516418457 49.16326904296875 165 153 157
-0.948699474334716797 -0.495648592710494995 47.905120849609375 158 157 161
0.433772563934326172 1.62049448490142822 48.7661209106445312 224 235 240
0.812763571739196777 6.78682899475097656 49.9370498657226562 208 217 222
-0.00203685229644179344 2.89929485321044922 48.788299560546875 172 162 160
1.8586432933807373 6.78681278228759766 49.7649307250976562 159 171 167
0.416561245918273926 3.32957172393798828 48.7930145263671875 220 218 221
-1.37623000144958496 1.958587646484375 48.0175704956054688 157 171 172
0.417101055383682251 3.33774781227111816 48.8468132019042969 220 218 221
1.63973081111907959 3.65347075462341309 49.4034271240234375 164 164 152
3.4588167667388916 -1.74813663959503174 48.4094657897949219 106 93 102
1.73257958889007568 3.71132850646972656 48.8609695434570312 164 153 137
-1.02462577819824219 -0.339774668216705322 48.2520103454589844 169 171 167
1.95387351512908936 1.32696402072906494 48.925445556640625 155 146 142
0.41646808385848999 1.96859359741210938 48.3062324523925781 132 120 126
1.58758056163787842 2.16569900512695312 49.0666275024414062 122 102 103
1.5352318286895752 2.56345772743225098 49.1064529418945312 133 112 116
0.323923230171203613 2.85487723350524902 48.7122993469238281 139 129 120
-3.89378976821899414 3.67001438140869141 47.9396018981933594 153 154 148
3.13871073722839355 7.18412256240844727 49.7993278503417969 161 162 157
0.384249895811080933 2.88006114959716797 48.7831611633300781 151 140 128
-3.05635714530944824 5.15946769714355469 48.67486572265625 155 157 152
-5.39909934997558594 3.0150303840637207 47.066192626953125 177 197 189
0.900524675846099854 3.37294101715087891 49.2121849060058594 192 197 183
1.56944584846496582 4.03570938110351562 49.6077690124511719 148 134 126
1.7351604700088501 7.70536375045776367 50.3962936401367188 153 166 157
-3.81281375885009766 4.03524494171142578 48.09326171875 173 184 190
-1.52476704120635986 4.15078592300415039 48.8612289428710938 196 200 209
1.71631014347076416 5.21929550170898438 49.800140380859375 138 123 117
-1.37023425102233887 4.18506526947021484 49.27520751953125 165 166 158
1.37213313579559326 1.78697645664215088 48.7698707580566406 156 140 143
0.995854079723358154 1.48358654975891113 48.9070701599121094 147 130 122
0.617180049419403076 1.82431447505950928 49.5577621459960938 145 141 129
-1.05016148090362549 2.55093765258789062 48.2842941284179688 154 153 151
0.196679532527923584 3.75771331787109375 48.907073974609375 189 201 213
-4.41286993026733398 0.511602997779846191 47.2418136596679688 188 205 206
-4.33862447738647461 0.539035618305206299 47.3342742919921875 134 128 130
-1.59613204002380371 5.38796281814575195 49.1071510314941406 164 169 165
-2.16262698173522949 7.02932643890380859 49.2589111328125 144 134 134
-3.47060298919677734 1.19180548191070557 47.5297470092773438 157 161 161
0.784648656845092773 1.9496612548828125 48.851318359375 144 141 127
5.45270204544067383 4.24906110763549805 49.5137596130371094 145 138 132
1.70177984237670898 2.7843017578125 48.8857460021972656 114 97 96
-0.510003745555877686 0.349785953760147095 47.6706695556640625 148 138 128
0.802847981452941895 3.7050018310546875 49.1851119995117188 146 136 124
