ply
format ascii 1.0
element vertex 659
property float x
property float y
property float z
property uchar red
property uchar green
property uchar blue
end_header
-2.54773736000061035 0.34280666708946228 8.84345054626464844 158 123 117
-2.1823573112487793 -0.0513953901827335358 7.25059747695922852 181 152 131
1.89504086971282959 0.717913448810577393 10.3032369613647461 195 169 157
-2.70865178108215332 -0.217823341488838196 6.14578437805175781 117 74 58
0.755602002143859863 0.158985987305641174 9.82567024230957031 161 113 100
3.53928804397583008 0.0149751985445618629 9.05467128753662109 184 135 121
0.865769922733306885 0.299766182899475098 9.08896636962890625 164 119 103
3.44666290283203125 0.00546473590657114983 9.20100021362304688 135 86 71
-2.05422663688659668 -0.278414160013198853 6.89465713500976562 133 87 73
3.37458658218383789 -0.141000717878341675 8.80911445617675781 143 105 92
1.34544801712036133 -0.0695936083793640137 10.3137321472167969 196 170 159
-2.08390259742736816 0.514727294445037842 10.0905466079711914 112 74 71
0.563286542892456055 0.178161084651947021 10.2691555023193359 110 60 45
3.85330939292907715 0.213129952549934387 9.6308441162109375 166 132 120
-1.80731725692749023 -0.408978551626205444 7.59754800796508789 157 113 102
3.2733767032623291 -0.320024847984313965 8.769378662109375 131 85 72
-2.35996747016906738 0.318583160638809204 8.85138034820556641 142 96 85
4.28707408905029297 0.195003017783164978 9.54852962493896484 82 47 38
-1.21255016326904297 1.83304500579833984 8.97958469390869141 153 153 153
0.946428120136260986 0.355641722679138184 8.78291893005371094 120 70 52
-2.26356911659240723 0.344721972942352295 9.02398967742919922 148 111 103
-1.96555638313293457 0.00526689644902944565 7.91599893569946289 143 96 81
-3.12211346626281738 -0.0427762791514396667 7.43652486801147461 147 98 81
0.679455101490020752 0.658650040626525879 9.92687797546386719 170 119 102
3.31003952026367188 -0.0608854033052921295 9.23349094390869141 182 145 127
-1.14056301116943359 0.0632701143622398376 10.2386350631713867 146 113 104
0.446893006563186646 0.114834889769554138 10.3162689208984375 194 167 156
-1.79363453388214111 2.2194826602935791 8.97703456878662109 157 157 157
-0.141149982810020447 -1.00874638557434082 9.86556148529052734 137 90 74
-8.40427017211914062 0.931808412075042725 10.3382205963134766 204 190 179
-2.21576380729675293 -0.304081767797470093 6.17503118515014648 142 96 83
3.42023873329162598 -0.292555779218673706 8.34856986999511719 128 85 69
-0.0822326317429542542 -0.943632781505584717 9.99020767211914062 141 92 75
0.914863467216491699 -0.887923598289489746 9.73266124725341797 135 106 102
1.22630870342254639 0.845507323741912842 10.0542516708374023 96 50 39
0.990009725093841553 -0.877323031425476074 9.82495498657226562 74 45 39
0.399477481842041016 -0.804073691368103027 10.0272150039672852 114 68 55
1.36979258060455322 -0.954901576042175293 10.2693929672241211 78 46 41
-1.61152875423431396 -0.342931002378463745 8.22645282745361328 128 90 77
3.43482017517089844 -0.688283205032348633 8.72788333892822266 199 156 139
1.05924594402313232 0.104319170117378235 9.61465835571289062 133 92 75
3.38083148002624512 -0.693839371204376221 8.84804916381835938 196 151 132
3.4201500415802002 -0.292401224374771118 8.34828090667724609 128 85 69
-0.415220737457275391 -1.25333678722381592 10.0361146926879883 125 79 62
0.732957541942596436 -0.838456094264984131 9.79526424407958984 162 132 127
-2.1504216194152832 0.822662353515625 9.43883800506591797 172 174 173
0.446491509675979614 -0.83375847339630127 9.87194156646728516 117 69 57
-1.17307031154632568 -0.83311772346496582 10.2700328826904297 99 69 55
0.474328339099884033 -0.802147865295410156 9.98998928070068359 173 128 115
3.13650703430175781 -0.86712801456451416 10.0309877395629883 154 113 98
1.25448882579803467 -0.853839695453643799 10.3058872222900391 201 172 158
-1.68159687519073486 2.36202096939086914 8.96324539184570312 189 189 189
3.91795849800109863 2.75266313552856445 10.3298759460449219 207 187 172
-1.28100395202636719 2.32674217224121094 8.97884654998779297 162 162 162
3.43258166313171387 -0.0809516534209251404 8.89439105987548828 170 129 111
-1.14402055740356445 2.29015803337097168 8.97942638397216797 166 166 166
4.20100784301757812 2.99807143211364746 10.3222246170043945 200 190 181
1.56273043155670166 0.595598757266998291 9.48385524749755859 106 46 35
1.17103588581085205 0.783244073390960693 9.73587799072265625 106 48 36
-2.37415099143981934 -1.07617318630218506 8.954742431640625 101 62 45
0.611638009548187256 0.747099339962005615 10.3107738494873047 209 186 173
0.936659455299377441 0.74401390552520752 9.76575374603271484 114 62 48
0.72205197811126709 0.695693552494049072 9.99237632751464844 136 83 65
0.926831841468811035 0.6759033203125 9.47141075134277344 122 65 53
3.54954934120178223 -0.349104940891265869 7.83949899673461914 135 86 74
0.981090128421783447 0.590227782726287842 8.99115276336669922 124 81 62
0.78852158784866333 0.0322091728448867798 10.2998647689819336 100 58 43
4.40966892242431641 -1.19746875762939453 10.2189655303955078 199 185 172
1.14812576770782471 0.557906031608581543 8.56523799896240234 117 74 58
-0.373045951128005981 -1.10345876216888428 10.1699228286743164 145 96 81
-3.63344740867614746 0.162051141262054443 9.34953498840332031 128 70 52
-1.87726211547851562 0.498164862394332886 10.2466068267822266 74 49 47
1.21441423892974854 0.530741214752197266 8.38292884826660156 162 120 104
-1.83433139324188232 0.438826382160186768 10.0286598205566406 169 139 136
-1.62273943424224854 0.409294962882995605 10.2718667984008789 70 49 43
1.119834303855896 2.39979934692382812 10.321258544921875 203 189 178
-2.76200556755065918 0.419531166553497314 9.32120037078857422 157 108 93
0.855782687664031982 0.136898577213287354 9.68852424621582031 122 76 63
-3.62372541427612305 0.383986473083496094 10.2231998443603516 123 81 64
-3.75497126579284668 0.276377409696578979 10.0512170791625977 165 108 93
-1.67517852783203125 0.388025939464569092 10.0498361587524414 135 108 104
-3.47255182266235352 0.109721101820468903 8.90863895416259766 152 116 97
4.23619365692138672 0.102548778057098389 9.04262924194335938 129 111 104
-1.6741783618927002 0.342666804790496826 9.84627532958984375 154 126 122
-2.53601574897766113 -0.252703607082366943 5.75652503967285156 115 72 56
3.56871914863586426 0.253665536642074585 10.1790571212768555 130 84 69
4.05799055099487305 0.200668945908546448 9.69814682006835938 98 52 40
-2.52608180046081543 -0.0515875592827796936 6.7611689567565918 117 88 74
1.72016692161560059 0.668957829475402832 9.78876209259033203 178 139 124
-2.59694337844848633 -0.0545904859900474548 6.76091098785400391 157 124 105
-2.8659975528717041 0.102441489696502686 7.75249099731445312 118 78 67
0.67129284143447876 0.610034167766571045 9.83578872680664062 147 90 73
-1.67146170139312744 -0.169451385736465454 8.23433303833007812 184 158 153
-2.45907139778137207 0.496013879776000977 9.73082160949707031 117 68 62
0.642518699169158936 0.352087020874023438 9.65163326263427734 117 73 60
2.83772873878479004 -0.36378711462020874 10.1336679458618164 143 100 84
-1.13374161720275879 3.37027072906494141 10.329071044921875 181 163 149
-3.62138080596923828 0.330870091915130615 9.91956520080566406 137 88 68
-1.49742066860198975 -0.159092724323272705 8.71330451965332031 89 50 36
-1.42871928215026855 2.12340593338012695 8.98213291168212891 153 153 153
-2.53866338729858398 0.125439316034317017 7.72978019714355469 104 74 64
3.85413789749145508 0.213091090321540833 9.63271427154541016 166 132 120
1.420623779296875 0.553098738193511963 8.67360115051269531 103 62 44
-1.1948930025100708 -0.544461071491241455 9.61711311340332031 153 110 91
-2.84957170486450195 0.323165655136108398 8.825927734375 103 65 54
0.389252066612243652 0.369600266218185425 10.3194141387939453 202 186 173
-2.40839815139770508 1.77231252193450928 9.25483989715576172 206 198 190
-2.54245281219482422 0.362553149461746216 8.98806190490722656 87 53 46
-2.03035974502563477 0.238464146852493286 8.89543437957763672 109 74 70
0.651237845420837402 -0.910034000873565674 9.50637149810791016 106 77 67
-2.42286324501037598 0.520003795623779297 9.87197589874267578 81 36 31
3.37581896781921387 -0.516403853893280029 8.46573257446289062 140 101 86
4.83641481399536133 0.59381943941116333 10.3237485885620117 204 190 181
1.53509223461151123 -1.03722143173217773 10.2678918838500977 211 181 171
0.370003044605255127 -0.768785834312438965 10.218048095703125 173 139 130
-0.427455395460128784 -1.06926441192626953 10.3193769454956055 201 185 170
-1.12190723419189453 -0.656891167163848877 10.0620641708374023 170 143 124
2.6071159839630127 2.94754981994628906 10.3199005126953125 207 194 184
2.97306418418884277 -0.527749896049499512 9.67836952209472656 159 103 80
3.69895195960998535 -0.497205555438995361 7.46978521347045898 130 84 69
3.2229464054107666 -0.347724974155426025 8.90175151824951172 135 86 72
-1.53291594982147217 1.86529386043548584 8.97474956512451172 155 155 155
3.25153207778930664 -0.328972071409225464 8.84209537506103516 155 105 94
-2.06227970123291016 2.17800593376159668 8.97478103637695312 192 192 192
-1.51136481761932373 -0.25378069281578064 8.55952262878417969 88 43 37
1.05617415904998779 -0.902506470680236816 9.81512165069580078 151 123 111
-1.71801352500915527 -0.184098675847053528 8.03517055511474609 144 116 105
0.236649394035339355 2.42912769317626953 10.3226099014282227 207 194 185
-1.66683030128479004 -0.157900795340538025 8.21534824371337891 184 158 153
3.63464975357055664 -0.18945719301700592 8.05082607269287109 193 150 134
-2.99219536781311035 -0.037490013986825943 7.25424337387084961 144 88 73
-1.56475257873535156 -0.170578926801681519 8.53784370422363281 185 157 148
-2.03395771980285645 2.76241946220397949 10.3245334625244141 208 198 188
3.2052462100982666 -0.238203033804893494 9.093109130859375 181 137 123
3.68428206443786621 -1.14631187915802002 10.2985067367553711 211 185 172
-2.60898995399475098 -0.273840427398681641 5.59558010101318359 115 72 57
3.36663436889648438 -0.164969086647033691 8.82529544830322266 186 148 133
-2.31198453903198242 0.3823414146900177 9.23371028900146484 96 57 50
3.13766646385192871 -0.180726572871208191 9.39357376098632812 159 111 99
-5.70714139938354492 2.91436481475830078 10.3216724395751953 205 199 193
-1.89649581909179688 -0.00721145933493971825 8.04538154602050781 102 62 47
-2.24210286140441895 1.72869193553924561 8.97825431823730469 191 190 187
3.54317569732666016 0.278612107038497925 10.2777223587036133 126 82 69
0.681282460689544678 -0.888860881328582764 9.59958934783935547 103 73 63
-1.19195365905761719 0.0456549860537052155 9.99537754058837891 166 123 116
3.24580693244934082 -0.122162081301212311 9.22982025146484375 157 111 95
-4.33361911773681641 2.9266817569732666 10.3183755874633789 205 197 186
3.06984210014343262 0.0355729162693023682 10.1774530410766602 165 116 101
-2.30783939361572266 0.063753865659236908 7.57878732681274414 147 98 94
3.53824138641357422 -0.0439158119261264801 8.81168651580810547 186 140 124
-2.30380702018737793 1.89448750019073486 8.92317771911621094 211 202 193
-2.54218173027038574 0.124478146433830261 7.72928619384765625 104 74 64
4.45920658111572266 2.45053005218505859 10.3134231567382812 204 190 181
-1.6387406587600708 0.86837393045425415 8.96140003204345703 156 158 157
3.00227761268615723 -0.0241114478558301926 10.1667518615722656 167 118 103
-0.342595368623733521 2.00893115997314453 10.3180360794067383 208 199 190
-1.50660347938537598 0.165616437792778015 9.55963325500488281 123 106 98
0.512596309185028076 -0.883937180042266846 9.54477882385253906 194 160 151
-1.18180429935455322 -0.396065771579742432 9.56930065155029297 157 110 92
-2.04766964912414551 0.146869778633117676 8.29226779937744141 133 106 92
-1.52506411075592041 -0.605142414569854736 8.71698760986328125 188 156 136
-3.90962719917297363 0.045789375901222229 9.75287818908691406 162 115 105
-1.4656301736831665 0.167288482189178467 9.68220043182373047 163 144 137
-3.97124004364013672 0.226531282067298889 10.3013782501220703 204 182 170
3.25901222229003906 0.0555788911879062653 9.78201007843017578 133 91 75
1.51487433910369873 -0.304046571254730225 10.3222742080688477 207 195 183
-1.26301836967468262 0.0532938539981842041 9.86882972717285156 92 54 46
5.02899694442749023 1.43984198570251465 10.3232965469360352 205 189 176
-3.57228827476501465 0.133589580655097961 9.11601734161376953 120 68 52
-2.03473567962646484 2.76154041290283203 10.3209848403930664 208 198 189
-4.05798244476318359 0.0818343311548233032 10.2630672454833984 103 66 56
3.3639824390411377 0.105410069227218628 9.73149013519287109 151 108 91
-1.46299469470977783 0.358310282230377197 10.3309726715087891 205 186 179
3.32526087760925293 0.119494609534740448 9.89021396636962891 142 103 86
-2.4522857666015625 -0.300246268510818481 5.71379280090332031 167 125 109
-1.29573667049407959 0.163050919771194458 10.0779695510864258 185 157 153
0.489630132913589478 0.624923110008239746 10.3236465454101562 204 174 164
-1.11073637008666992 -0.381957083940505981 9.80390644073486328 173 134 116
-3.01148748397827148 0.254335939884185791 8.65712165832519531 119 67 56
2.82402992248535156 -0.395981043577194214 10.1214618682861328 181 139 125
1.3979802131652832 0.881203055381774902 10.3344821929931641 75 40 36
3.28202486038208008 -0.735592961311340332 9.22051906585693359 141 101 82
0.69061124324798584 -0.926415741443634033 9.33932018280029297 103 70 63
-4.40198993682861328 0.373501628637313843 10.334507942199707 208 199 190
0.653793036937713623 0.310774534940719604 9.81106758117675781 129 85 71
2.82403802871704102 -0.396008789539337158 10.1230373382568359 181 139 125
0.636014163494110107 0.310680657625198364 9.74076366424560547 129 85 71
1.57693266868591309 0.198949947953224182 9.37510490417480469 102 56 40
1.47156381607055664 0.125391140580177307 9.42882347106933594 111 88 74
-2.23254895210266113 0.214862927794456482 8.40199470520019531 87 53 44
-2.31786370277404785 -0.0915203988552093506 6.89873456954956055 156 114 96
0.892615795135498047 0.132930278778076172 9.64729976654052734 114 66 52
0.867597997188568115 0.159195989370346069 9.58740711212158203 184 145 130
-0.219791829586029053 -1.02204501628875732 10.0568828582763672 178 136 120
3.96783828735351562 0.174624398350715637 9.40640544891357422 159 113 97
-4.08950328826904297 2.7610924243927002 10.3340740203857422 188 173 166
3.52901959419250488 0.154453635215759277 9.72076034545898438 169 124 105
4.56245660781860352 1.92843508720397949 10.3176202774047852 206 194 182
-2.19543862342834473 0.260147631168365479 8.68693447113037109 129 91 80
-2.91450357437133789 -0.0755418315529823303 6.93297100067138672 148 96 82
0.874122738838195801 0.628392219543457031 9.37703990936279297 171 128 109
3.98479437828063965 -0.333548158407211304 6.76704120635986328 132 88 75
-2.70594096183776855 0.296293288469314575 8.67055988311767578 101 60 46
4.1163325309753418 0.247203826904296875 9.77194976806640625 83 40 34
3.18531346321105957 -0.755456507205963135 9.32924556732177734 150 107 90
4.2021183967590332 0.252794057130813599 9.81363296508789062 159 119 114
3.56644892692565918 -0.293285012245178223 7.93898534774780273 177 131 116
3.98069238662719727 0.29235723614692688 10.0195207595825195 176 138 125
3.50556373596191406 -0.561005234718322754 8.07042980194091797 121 73 61
-1.05637431144714355 2.37990093231201172 8.95853614807128906 146 146 146
-2.29805779457092285 0.3634357750415802 9.04790782928466797 99 58 52
0.54839026927947998 0.313455790281295776 9.99965858459472656 135 95 77
-2.86888718605041504 0.379226356744766235 9.15174961090087891 99 53 43
-2.85423374176025391 0.0393100380897521973 7.43430280685424805 96 50 40
-3.7680518627166748 0.350081861019134521 10.2976198196411133 207 182 168
1.31027364730834961 0.73368537425994873 9.41757965087890625 103 75 60
-3.03259778022766113 0.397775739431381226 9.42457962036132812 143 95 82
-1.74773788452148438 0.378839433193206787 9.85480117797851562 76 47 43
-1.16907227039337158 -0.155144631862640381 9.75161361694335938 111 64 48
-1.95836329460144043 0.425088822841644287 9.76056385040283203 72 44 40
-2.51677966117858887 0.458334833383560181 9.51845073699951172 126 79 66
-1.65466558933258057 -0.869864404201507568 9.16426563262939453 112 93 87
-1.31949281692504883 -0.338044822216033936 9.13445854187011719 115 68 53
-2.62043046951293945 0.140027284622192383 7.8295598030090332 157 124 112
-3.13404631614685059 0.492029905319213867 9.99702835083007812 153 90 75
1.24741637706756592 -1.00051701068878174 9.76543045043945312 101 47 35
0.507449567317962646 -0.739741981029510498 10.2634572982788086 115 68 60
-2.54963779449462891 0.535388052463531494 9.92176342010498047 84 45 38
0.774320006370544434 0.612967431545257568 9.54373073577880859 122 72 57
-1.3865131139755249 -0.192117750644683838 9.03070831298828125 159 117 103
0.670555531978607178 0.609107434749603271 9.83187103271484375 154 101 85
1.18849897384643555 -0.844565808773040771 10.2557888031005859 86 59 47
1.16916394233703613 0.633414208889007568 8.95076084136962891 105 52 39
-1.56420600414276123 0.841869175434112549 9.02010536193847656 168 167 165
0.855690300464630127 0.746753275394439697 9.91319656372070312 148 95 79
-2.5276789665222168 0.576359093189239502 10.0867338180541992 117 84 75
1.39766228199005127 0.758929610252380371 9.6988525390625 87 55 42
0.992208778858184814 0.768846809864044189 9.79011631011962891 155 101 89
1.17062318325042725 0.818265378475189209 9.93459320068359375 135 77 65
-2.92500066757202148 0.590305805206298828 10.3003301620483398 97 62 56
-2.02396631240844727 1.46411406993865967 8.97284984588623047 160 160 160
0.326568067073822021 -0.763143479824066162 10.30865478515625 136 102 97
-1.27004146575927734 1.80227446556091309 8.98335170745849609 170 170 170
-1.36870300769805908 -0.488450735807418823 9.02304649353027344 120 73 57
0.435974538326263428 -0.78432774543762207 10.1195173263549805 117 75 63
-2.71365070343017578 0.117023415863513947 7.75641632080078125 159 120 106
-3.20572209358215332 0.513374209403991699 10.2227420806884766 142 83 67
-1.07020306587219238 -0.5287628173828125 9.96011543273925781 145 99 84
-3.39792966842651367 0.163886383175849915 8.86158084869384766 184 148 129
-0.352636963129043579 -1.15619635581970215 9.97643280029296875 152 100 87
-3.01610922813415527 2.82307791709899902 10.3226051330566406 207 198 189
-2.36054658889770508 0.37503206729888916 9.13498210906982422 96 55 46
-1.31778645515441895 0.0119635257869958878 9.60496616363525391 172 129 116
0.410724639892578125 -0.751084864139556885 10.3126668930053711 96 66 55
-0.116334326565265656 -1.04651224613189697 9.71193885803222656 133 90 71
-2.71412754058837891 -0.277724802494049072 5.79519033432006836 181 145 131
-2.41975045204162598 0.337727665901184082 9.06452465057373047 84 47 38
-2.83306741714477539 -0.250847756862640381 6.00304174423217773 149 106 89
-1.70373570919036865 2.76818609237670898 10.3259954452514648 208 201 191
1.10106480121612549 -0.915280282497406006 9.79323768615722656 88 48 38
-3.43407368659973145 0.169733569025993347 8.92249298095703125 138 103 84
0.73198622465133667 -0.865024328231811523 9.67482757568359375 122 97 90
-1.59504222869873047 -0.612226486206054688 8.52731418609619141 146 113 98
3.44922709465026855 -0.315088063478469849 8.23530006408691406 174 128 114
0.85197073221206665 -0.867542624473571777 9.76170921325683594 88 61 57
-1.40344345569610596 1.92049849033355713 8.97865200042724609 192 192 192
-2.39464044570922852 0.220548480749130249 8.35632133483886719 113 79 70
-0.767233192920684814 2.30723118782043457 10.2708568572998047 203 198 192
-2.19489192962646484 -0.291980326175689697 6.45466423034667969 101 53 41
0.802217960357666016 0.53113555908203125 9.26058006286621094 146 109 91
0.80469512939453125 -0.821090757846832275 9.94202899932861328 101 72 64
-1.88683986663818359 -0.305276960134506226 7.3614649772644043 110 76 66
-1.02110707759857178 -0.131238728761672974 10.3362340927124023 97 52 43
1.04803955554962158 -0.845300018787384033 10.1012239456176758 183 149 140
-1.04809689521789551 -0.666750967502593994 10.2338695526123047 193 158 148
-1.74153482913970947 -0.330630213022232056 7.83421230316162109 99 60 51
-1.99182021617889404 -0.332581669092178345 7.05272769927978516 162 120 106
-1.46983015537261963 -0.862599372863769531 9.54955768585205078 163 117 102
-1.25998866558074951 -0.742591023445129395 9.79131221771240234 167 135 120
0.864454329013824463 -0.783438026905059814 10.225703239440918 124 92 78
-2.9576263427734375 0.100297525525093079 7.87803459167480469 126 82 71
-1.05901002883911133 -0.620859503746032715 10.1320276260375977 111 78 65
3.03969812393188477 -0.604819238185882568 9.71225547790527344 157 112 91
-2.70745992660522461 -0.0744978412985801697 6.65727853775024414 120 72 54
-1.806618332862854 -0.286591798067092896 7.65900802612304688 99 65 55
-2.95327425003051758 0.18234717845916748 8.20980262756347656 124 67 56
-1.28433215618133545 -0.334501147270202637 9.29414844512939453 111 62 47
-1.07408463954925537 -0.496165633201599121 9.95234870910644531 108 68 53
-2.57808685302734375 -0.0382142104208469391 6.8791351318359375 113 80 63
-2.66209578514099121 0.578681588172912598 10.1421165466308594 152 119 112
0.166756138205528259 -0.927383899688720703 9.63602542877197266 134 86 72
-1.71109521389007568 -0.149196669459342957 8.12663936614990234 83 56 49
0.980828523635864258 0.742467224597930908 9.74109840393066406 116 62 50
4.26917266845703125 0.241400599479675293 9.82032966613769531 112 69 63
-1.42057585716247559 0.260967224836349487 10.0995092391967773 133 92 90
0.542865872383117676 0.191368594765663147 10.3123178482055664 108 59 41
3.56287646293640137 -0.063459150493144989 8.67006397247314453 135 87 71
-2.2411191463470459 0.479314982891082764 9.77166080474853516 109 80 74
3.43212604522705078 -0.0819165259599685669 8.90355110168457031 183 144 126
3.76671266555786133 0.312005102634429932 10.2239656448364258 157 113 107
-3.00233173370361328 0.0679867565631866455 7.68162202835083008 128 79 65
-2.14477729797363281 0.47676551342010498 9.83387279510498047 94 59 53
3.1190497875213623 -0.102186381816864014 9.66453170776367188 195 153 139
3.87798142433166504 0.339488208293914795 10.2903738021850586 123 88 78
-2.37943077087402344 0.138901367783546448 7.91259479522705078 104 85 78
1.14059388637542725 0.508942127227783203 8.35426139831542969 169 130 120
3.45246767997741699 0.03835272416472435 9.32163143157958984 167 117 101
0.366755783557891846 -0.985581338405609131 9.11458110809326172 149 105 94
1.2316204309463501 -0.0167044159024953842 10.0628814697265625 95 63 50
4.12145185470581055 -0.205061882734298706 7.42089366912841797 134 76 62
3.49784231185913086 0.0753642171621322632 9.3870391845703125 163 111 97
3.13497447967529297 0.0362842977046966553 10.0074739456176758 181 135 120
3.07278203964233398 0.0400802195072174072 10.1981840133666992 165 116 100
-0.366855919361114502 -1.27403151988983154 9.66552162170410156 154 118 105
1.12050545215606689 0.880680561065673828 10.2990608215332031 106 71 55
-2.8382563591003418 0.475301593542098999 9.68351554870605469 143 94 80
1.18921279907226562 0.0805983617901802063 9.61971855163574219 156 120 104
-1.47052168846130371 0.0893166288733482361 9.29285335540771484 89 38 34
-1.72268831729888916 -0.753174483776092529 8.56607246398925781 176 146 135
-0.160575553774833679 -0.911159336566925049 10.3108320236206055 158 126 111
-0.0702442899346351624 -0.883184492588043213 10.2382717132568359 183 140 124
-2.34777402877807617 -0.282659441232681274 6.01288366317749023 147 113 103
-1.60523724555969238 -0.249714016914367676 8.28007030487060547 137 104 97
2.81957697868347168 -0.5011177659034729 10.1426239013671875 159 118 98
1.05693984031677246 0.876067578792572021 10.2983779907226562 109 79 68
-3.29855561256408691 0.318275213241577148 9.35432052612304688 194 152 130
-2.23233628273010254 0.168205276131629944 8.23455619812011719 80 50 42
-2.55051159858703613 0.535908699035644531 9.92295551300048828 84 45 38
-3.49930143356323242 -0.200581759214401245 7.99768924713134766 112 64 51
0.665575087070465088 0.609876871109008789 9.81807231903076172 154 101 85
-2.93099069595336914 0.126757219433784485 7.91082477569580078 136 86 74
0.983435988426208496 0.451923519372940063 8.59943675994873047 156 120 106
4.17648649215698242 0.126101046800613403 9.14083576202392578 102 72 61
0.884413540363311768 0.667249917984008789 9.54280757904052734 163 109 96
-1.21776473522186279 -0.274069339036941528 9.51120853424072266 117 74 57
1.39359593391418457 0.728528499603271484 9.50040149688720703 168 140 126
1.26470947265625 0.749146640300750732 9.52904987335205078 114 76 62
1.03358709812164307 0.827077150344848633 10.1004095077514648 135 87 73
3.15751028060913086 -0.860110104084014893 10.0055551528930664 144 95 79
1.18256986141204834 0.865309953689575195 10.1749782562255859 176 134 122
3.54008173942565918 -0.0765004903078079224 8.66807651519775391 163 117 101
-3.20377206802368164 0.455610364675521851 9.85620212554931641 158 105 86
-0.224248453974723816 -0.918414771556854248 10.2170095443725586 127 95 82
-3.33203649520874023 0.459057211875915527 10.0628232955932617 166 110 90
-1.83279550075531006 1.54503810405731201 8.98137474060058594 156 156 156
-3.27497458457946777 0.49776729941368103 10.1572980880737305 162 101 85
-2.59626221656799316 0.135610997676849365 7.77968311309814453 126 91 80
-1.27417111396789551 -0.186734840273857117 9.35494899749755859 141 92 78
-3.22959208488464355 0.531771183013916016 10.29583740234375 102 62 48
-2.63133001327514648 0.556470930576324463 10.0518150329589844 104 71 64
-0.10751698911190033 -0.896574079990386963 10.1967554092407227 148 108 91
-1.16623520851135254 -0.156049281358718872 9.76320075988769531 111 64 48
1.11587071418762207 0.591350913047790527 8.78876686096191406 125 81 68
-0.303640007972717285 -1.04490053653717041 10.1614818572998047 166 122 107
1.39804267883300781 0.631496906280517578 8.99853229522705078 137 85 69
3.50575518608093262 -0.874418258666992188 9.29369258880615234 156 105 88
1.01252889633178711 -1.43374967575073242 8.21445178985595703 175 139 125
-0.505645036697387695 -1.25512564182281494 10.2975673675537109 128 87 72
4.16780948638916016 0.203502506017684937 9.59577751159667969 80 34 28
-2.05461621284484863 -0.372781991958618164 6.8265538215637207 96 50 37
1.19274270534515381 -0.900862753391265869 10.0857973098754883 111 79 68
-1.67729926109313965 -0.0882597938179969788 8.32715797424316406 152 129 119
3.71189594268798828 -0.855380117893218994 8.86136245727539062 105 53 43
3.14505124092102051 -0.894955158233642578 10.0706977844238281 174 126 104
0.872032999992370605 0.321199357509613037 9.03877353668212891 138 91 75
3.31552243232727051 -0.728767931461334229 9.11313724517822266 132 85 69
-1.2100900411605835 -0.447264760732650757 9.50978279113769531 125 79 63
-0.209001645445823669 -0.897475838661193848 10.2481813430786133 212 187 180
-0.305724680423736572 -1.04168355464935303 10.1527032852172852 166 120 107
0.04385395348072052 -0.841946721076965332 10.2179985046386719 163 113 102
-1.49625802040100098 0.00078778131864964962 9.12755870819091797 157 136 125
-1.4105377197265625 -0.547203958034515381 8.98639488220214844 165 129 113
1.4544452428817749 -0.711062371730804443 10.3148775100708008 188 164 145
0.276521027088165283 -0.755038917064666748 10.3384294509887695 205 178 171
-7.88530302047729492 0.636382520198822021 10.3279047012329102 207 197 188
3.2376563549041748 -0.559531092643737793 9.04834556579589844 150 99 80
-1.69916784763336182 -0.304699093103408813 8.05217075347900391 136 101 92
3.72005033493041992 0.175488099455833435 9.53612613677978516 116 61 54
-1.73778212070465088 -0.277947485446929932 7.85066556930541992 81 47 37
-3.76419997215270996 3.33319377899169922 10.3199596405029297 208 194 185
-1.24595808982849121 -0.312832385301589966 9.37258720397949219 156 109 91
-1.6868736743927002 3.21817564964294434 10.3245773315429688 209 196 188
-1.22422480583190918 -0.190407082438468933 9.51425552368164062 144 93 79
4.55355119705200195 0.278955191373825073 10.2093114852905273 106 81 74
-1.2079545259475708 -0.153388768434524536 9.62772083282470703 140 91 76
4.27263927459716797 0.299385517835617065 9.97605228424072266 82 44 39
-1.03363549709320068 -0.187570750713348389 10.1143951416015625 155 108 93
0.467539310455322266 -0.992989301681518555 8.88892364501953125 123 65 53
-1.49545955657958984 0.00562615459784865379 9.08888530731201172 154 136 124
1.11050283908843994 0.395095378160476685 8.18404865264892578 119 76 59
3.64934921264648438 0.0562084317207336426 9.0718536376953125 125 77 61
-1.31711483001708984 0.0122973266988992691 9.60726165771484375 161 117 104
1.28942739963531494 0.879500091075897217 10.2479829788208008 147 113 103
1.22306370735168457 0.571660935878753662 8.55301094055175781 110 61 46
3.88863754272460938 0.33516007661819458 10.3278026580810547 117 83 73
1.83874022960662842 0.552192032337188721 9.76725292205810547 167 128 119
-2.40210056304931641 0.185540765523910522 8.10024738311767578 136 117 111
-1.74628770351409912 -0.134275153279304504 8.07332897186279297 165 132 126
-1.45462441444396973 -0.231415405869483948 8.79442405700683594 103 55 43
3.9608767032623291 -0.095530390739440918 7.96546363830566406 162 120 98
4.95981931686401367 1.61377596855163574 10.3229198455810547 185 162 144
4.02194595336914062 0.228047072887420654 9.70692920684814453 97 49 39
4.85211515426635742 0.23229682445526123 10.3549785614013672 204 187 177
-0.296016395092010498 -0.948814511299133301 10.2107572555541992 212 183 169
-2.08772444725036621 0.51439368724822998 10.1148643493652344 111 71 69
3.31618189811706543 3.07659125328063965 10.3246650695800781 204 192 178
-1.62520110607147217 -0.142340049147605896 8.38176345825195312 102 75 69
-1.1810227632522583 -0.393001139163970947 9.55248165130615234 152 105 87
-0.815361380577087402 2.01140356063842773 10.0179300308227539 206 200 189
3.57549428939819336 -0.670173704624176025 8.29049777984619141 159 113 98
-3.79917526245117188 -0.192472845315933228 8.98416614532470703 98 52 37
2.3862614631652832 0.366198122501373291 10.3266210556030273 210 196 187
-1.20775103569030762 -0.15350516140460968 9.62997055053710938 140 91 76
-2.02941989898681641 2.29923391342163086 8.97631931304931641 177 177 177
3.44001269340515137 3.30394816398620605 10.3193235397338867 183 166 152
0.868141651153564453 -1.04356169700622559 8.89415550231933594 108 61 45
-3.09457492828369141 0.0690245181322097778 7.85691118240356445 126 77 63
-2.12399125099182129 -0.427680313587188721 6.64359235763549805 142 102 90
-2.18637728691101074 1.60729491710662842 8.96756649017333984 190 192 191
0.463680535554885864 -0.921112895011901855 9.42893505096435547 125 84 69
-0.038334231823682785 -0.935891687870025635 10.026179313659668 165 117 101
1.08698296546936035 -0.958121120929718018 9.63347053527832031 117 70 60
3.35749459266662598 0.0704787448048591614 9.66629219055175781 176 139 120
3.51758003234863281 -0.984603822231292725 9.88048744201660156 153 107 92
-2.9904327392578125 -0.0352410785853862762 7.25687456130981445 140 85 70
1.03967475891113281 -0.924269735813140869 9.70885562896728516 163 124 114
-1.80384290218353271 -0.70491337776184082 8.19255352020263672 147 113 101
-3.30074381828308105 0.103158265352249146 8.40855598449707031 168 121 103
-1.42871928215026855 2.12340593338012695 8.98213291168212891 153 153 153
-1.20082974433898926 1.7448570728302002 8.97202777862548828 161 161 161
-2.15877842903137207 0.846671700477600098 8.96588516235351562 183 186 182
1.27388620376586914 -1.0766904354095459 9.54673099517822266 181 152 141
-1.90350198745727539 0.477072358131408691 10.1475725173950195 106 76 74
3.82644009590148926 0.275126069784164429 9.98471260070800781 106 69 55
3.04308557510375977 -0.805717229843139648 10.0871896743774414 158 133 119
2.88224625587463379 -0.63473200798034668 10.1919183731079102 154 88 64
-1.62983810901641846 -0.487542092800140381 8.21509647369384766 162 124 111
0.90147167444229126 0.651745915412902832 9.46474266052246094 160 111 96
0.779766499996185303 -0.743131458759307861 10.3629665374755859 207 187 178
-1.83437371253967285 -0.274717032909393311 7.56268453598022461 153 119 109
3.34224224090576172 -0.581088542938232422 8.59156894683837891 83 51 40
-1.16822910308837891 -0.504975199699401855 9.63144302368164062 106 61 44
-1.35320639610290527 -0.406567662954330444 9.02850246429443359 101 60 44
1.27621686458587646 -1.01890945434570312 9.73925590515136719 94 52 37
-0.991296887397766113 -0.558286428451538086 10.2799253463745117 88 56 45
-2.87129688262939453 0.378843247890472412 9.15594577789306641 101 53 43
2.79253625869750977 -0.525885701179504395 10.3098964691162109 171 140 122
2.72165966033935547 -0.415493905544281006 10.2706661224365234 198 168 158
3.4136962890625 0.990177690982818604 10.3058891296386719 204 188 175
-3.49254202842712402 0.177773475646972656 9.09620380401611328 182 141 127
-1.30130267143249512 -0.217037960886955261 9.29042530059814453 137 87 76
-1.58321738243103027 -0.0968206524848937988 8.60625362396240234 91 59 53
1.04242539405822754 0.812322080135345459 10.1500120162963867 135 86 72
-0.976885318756103516 -0.197534888982772827 10.270904541015625 112 76 64
-1.40731453895568848 -0.0634403228759765625 9.13891887664794922 151 112 99
1.16216981410980225 0.440205097198486328 8.10260105133056641 128 80 62
-1.4976036548614502 -0.0127769941464066505 9.06093120574951172 121 107 98
-2.95933294296264648 -0.0933504626154899597 6.93498420715332031 117 66 49
3.65967249870300293 0.036890130490064621 8.97161197662353516 139 95 82
0.763280153274536133 0.635018289089202881 9.62988758087158203 124 71 55
-2.72766280174255371 0.596579849720001221 10.3207206726074219 79 52 43
2.98660612106323242 0.018377155065536499 10.2934856414794922 142 104 88
0.962895452976226807 0.0826084837317466736 9.83968734741210938 134 91 77
3.23120379447937012 0.0752691775560379028 9.94109058380126953 170 137 120
-2.56350088119506836 0.321147173643112183 8.76552295684814453 167 130 122
0.810249388217926025 0.162707418203353882 9.65544986724853516 119 72 56
3.67285060882568359 -1.68375897407531738 10.3236112594604492 208 195 184
0.790012061595916748 0.194314509630203247 9.66399192810058594 141 99 83
4.00223255157470703 0.232817798852920532 9.6753082275390625 100 53 43
-2.68178868293762207 0.0251351408660411835 7.18761444091796875 141 82 68
-2.21294617652893066 0.295126110315322876 8.87045860290527344 102 68 61
-3.13836169242858887 0.18826042115688324 8.45368766784667969 146 93 79
4.29957914352416992 0.12597423791885376 9.22060966491699219 177 150 143
-1.93186295032501221 -0.408960640430450439 7.22397422790527344 155 108 98
-1.62376189231872559 0.348149120807647705 9.98011016845703125 88 59 55
-3.71713399887084961 0.352899163961410522 10.3020715713500977 144 106 93
-2.46357393264770508 0.157367706298828125 7.98681974411010742 118 96 88
-2.75364589691162109 0.517517924308776855 9.86108207702636719 123 70 66
0.394026666879653931 -0.944743573665618896 9.28254985809326172 130 92 79
-3.32387161254882812 0.507003366947174072 10.2824430465698242 112 65 54
-1.26767313480377197 -0.0377829931676387787 9.62655830383300781 152 109 93
-2.46695232391357422 0.533656060695648193 9.94092941284179688 89 47 40
3.48633241653442383 -0.335316956043243408 8.15792560577392578 154 106 92
0.889980018138885498 0.691306531429290771 9.59095001220703125 120 65 50
1.19372153282165527 0.707421541213989258 9.32779407501220703 108 63 43
0.50055009126663208 -0.998578488826751709 8.90300846099853516 151 94 83
1.28357815742492676 -0.870573520660400391 10.2512950897216797 205 176 161
0.850689053535461426 -0.900008797645568848 9.54418563842773438 100 72 64
-1.24777674674987793 0.0273085962980985641 9.80820465087890625 147 100 92
2.86615490913391113 3.2406623363494873 10.3215045928955078 206 193 184
0.651160240173339844 0.450718492269515991 9.5948638916015625 116 65 54
3.22060132026672363 -0.94568556547164917 10.1140470504760742 179 129 109
0.582296788692474365 0.437711119651794434 9.85370063781738281 122 72 58
-7.49582624435424805 3.05189251899719238 10.3336591720581055 202 188 179
0.839167654514312744 0.370502382516860962 9.06682300567626953 125 79 64
1.3112647533416748 -0.909281790256500244 10.2725973129272461 128 102 89
-1.22638058662414551 0.1481008380651474 10.2380704879760742 78 47 42
-1.81017220020294189 -0.28429865837097168 7.62880134582519531 98 64 55
2.68042206764221191 0.307084202766418457 10.2180042266845703 189 175 162
-1.39347207546234131 -0.960603952407836914 10.0991220474243164 85 47 38
3.96944308280944824 0.182246491312980652 9.48018455505371094 130 84 69
1.12886226177215576 -0.929323554039001465 9.8803253173828125 86 46 36
3.50492477416992188 -0.0900332629680633545 9.00904750823974609 170 129 111
3.2591092586517334 -0.266549229621887207 8.88137245178222656 135 85 74
4.73614311218261719 0.327023476362228394 10.3065166473388672 187 169 159
-2.87099742889404297 -0.157563269138336182 6.50983619689941406 155 108 90
-2.00453901290893555 -0.169804111123085022 7.23273563385009766 114 64 57
-1.30276894569396973 -0.278376758098602295 9.25594329833984375 99 50 35
-3.99703049659729004 -0.120067775249481201 9.65242958068847656 115 57 47
-0.167800962924957275 -1.40845143795013428 9.23954582214355469 122 64 52
-1.47133457660675049 0.0891551747918128967 9.29566478729248047 90 40 31
1.1351696252822876 0.230704039335250854 8.82213306427001953 193 158 136
3.73438787460327148 -0.0292136222124099731 8.54935646057128906 104 58 52
-1.35467541217803955 -0.236088469624519348 9.05524730682373047 160 117 101
-3.00897955894470215 0.29830169677734375 8.86269187927246094 198 157 145
-4.33451700210571289 2.92736721038818359 10.3227949142456055 205 197 186
-2.26734757423400879 -0.586021661758422852 6.7104496955871582 101 54 38
-2.09018945693969727 0.366319626569747925 9.37905311584472656 99 69 64
-1.53735518455505371 0.0412569195032119751 9.15455055236816406 144 107 98
-2.81883001327514648 0.0414179563522338867 7.37845134735107422 140 95 82
3.66979360580444336 0.0402364581823348999 8.96169376373291016 146 103 87
-1.96767330169677734 -0.150925964117050171 7.37785577774047852 105 58 52
1.31215381622314453 0.698614299297332764 9.29462909698486328 147 110 94
4.8365330696105957 0.59377443790435791 10.3239221572875977 203 190 182
1.56281709671020508 0.820978760719299316 9.89925765991210938 212 175 166
-1.408638596534729 1.2998582124710083 8.96746540069580078 190 190 190
-1.72478783130645752 -0.312395870685577393 7.90069913864135742 154 115 108
-2.04937100410461426 2.51210308074951172 9.24676609039306641 208 198 189
0.338024735450744629 -0.783074736595153809 10.2876472473144531 126 86 76
-1.94283187389373779 0.305066317319869995 9.208251953125 200 192 189
-1.33624982833862305 2.33468890190124512 9.00340080261230469 190 190 190
4.39266157150268555 0.551486611366271973 10.3247079849243164 204 192 180
1.12609422206878662 0.812878608703613281 9.87311935424804688 112 54 41
-7.65523958206176758 1.40727400779724121 10.3269948959350586 205 195 186
-1.88926279544830322 0.341372668743133545 9.48870372772216797 98 82 74
1.00834381580352783 -0.895363032817840576 9.72309684753417969 137 105 94
2.79867959022521973 -0.494561553001403809 10.2950859069824219 192 161 146
4.51277685165405273 2.77561354637145996 10.3212814331054688 206 195 185
3.4364008903503418 0.212782114744186401 10.1319189071655273 161 107 93
-2.17879247665405273 -0.225974678993225098 6.66318511962890625 154 110 97
1.23698008060455322 0.572995007038116455 8.60043144226074219 110 61 47
3.5283055305480957 -0.103745803236961365 8.59164333343505859 170 126 109
-2.99239206314086914 -0.214425951242446899 6.39893150329589844 139 96 77
-1.60064280033111572 -0.65224921703338623 8.61876869201660156 107 72 57
4.35809803009033203 2.77600574493408203 10.3097324371337891 184 166 154
1.24149394035339355 0.555390775203704834 8.47405433654785156 114 68 52
-1.53291594982147217 1.86529386043548584 8.97474956512451172 155 155 155
3.41152095794677734 -0.934707105159759521 9.72217941284179688 137 92 76
0.236480638384819031 2.42906713485717773 10.325037956237793 207 194 185
-1.6285707950592041 0.144180893898010254 9.17586517333984375 102 83 76
-2.02952265739440918 0.200846821069717407 8.67909145355224609 114 77 71
-5.08358383178710938 1.86333048343658447 10.3268508911132812 208 195 189
-1.37809324264526367 2.0199897289276123 8.98259162902832031 176 176 176
4.64158391952514648 2.11207246780395508 10.3244380950927734 202 192 180
-1.94292020797729492 -0.316935688257217407 7.19283676147460938 147 114 98
1.63573336601257324 2.35006976127624512 10.3168506622314453 208 194 184
0.846666395664215088 0.827171802520751953 10.2925386428833008 109 67 51
0.341099172830581665 2.41968131065368652 10.3135871887207031 188 172 160
-0.0309807062149047852 -1.43513822555541992 8.73671054840087891 118 68 57
-1.7666313648223877 -0.650113701820373535 8.15620899200439453 103 70 61
-8.14098453521728516 2.50576329231262207 10.3314704895019531 180 167 158
-7.24568462371826172 2.7640540599822998 10.3254909515380859 200 190 180
3.44657063484191895 -0.495819240808486938 8.20614051818847656 146 102 88
4.0365138053894043 2.75915670394897461 10.3213443756103516 176 154 141
-1.41815292835235596 2.78914189338684082 10.3193540573120117 205 195 186
3.16772079467773438 2.81461739540100098 10.3356218338012695 205 195 183
4.35809803009033203 2.77600574493408203 10.3097324371337891 184 166 154
-2.03988981246948242 -0.263774573802947998 6.99488401412963867 112 68 57
3.90956878662109375 0.150770395994186401 9.24262714385986328 101 52 38
3.39567351341247559 -0.371972411870956421 8.28245353698730469 131 84 68
-3.8654634952545166 0.064169667661190033 9.66638469696044922 166 118 104
3.73024654388427734 0.224440619349479675 9.92628955841064453 112 64 52
-1.85240817070007324 0.397608697414398193 9.82010173797607422 72 41 38
3.31644558906555176 3.07644963264465332 10.3253002166748047 203 189 178
-7.63708591461181641 0.631832659244537354 10.3299131393432617 186 172 161
-2.02863073348999023 -0.320997834205627441 6.91143274307250977 109 67 53
-2.26811933517456055 0.578652143478393555 10.2023019790649414 70 39 34
-1.50201690196990967 2.19271183013916016 8.98263359069824219 153 153 153
3.60292220115661621 -0.242781803011894226 8.00171184539794922 141 92 77
-1.84849226474761963 1.44046759605407715 8.9750213623046875 194 194 194
-1.97975170612335205 2.18094062805175781 8.96380710601806641 153 153 153
2.81520581245422363 1.67489099502563477 10.3217840194702148 184 167 152
0.723598182201385498 0.233650952577590942 9.59157276153564453 172 128 115
-1.50693178176879883 1.69032275676727295 8.96704292297363281 194 194 194
0.199362263083457947 -0.924066543579101562 9.62257957458496094 151 102 88
-1.62799084186553955 0.117507830262184143 9.1632843017578125 148 125 115
-0.414901942014694214 1.79978132247924805 10.3145380020141602 211 199 189
1.49292171001434326 2.09377169609069824 10.3411045074462891 210 192 181
-2.09749317169189453 2.32853341102600098 8.9797821044921875 148 148 148
1.119834303855896 2.39979934692382812 10.321258544921875 203 189 178
3.80361366271972656 2.72805905342102051 10.3097734451293945 188 161 142
4.28743362426757812 2.82944965362548828 10.3768177032470703 204 192 178
-1.82802510261535645 2.26428723335266113 8.98268032073974609 152 152 152
4.12742757797241211 2.88884449005126953 10.3207988739013672 205 192 184
4.23512029647827148 2.89300632476806641 10.3438253402709961 184 168 155
3.4589695930480957 0.0594143234193325043 9.34083271026611328 147 98 81
-0.588298499584197998 3.0511021614074707 10.3237190246582031 187 172 165
0.84702455997467041 -0.966455280780792236 9.30026626586914062 125 77 64
-2.43726515769958496 -0.139121711254119873 6.44959306716918945 169 120 108
-1.53728902339935303 1.90739762783050537 8.96778964996337891 161 161 161
-1.83353972434997559 0.126887932419776917 8.753204345703125 135 103 92
3.37422394752502441 -0.41520160436630249 8.35178470611572266 176 130 117
3.45269465446472168 -0.20855991542339325 8.39062690734863281 140 90 79
1.14327645301818848 0.444194167852401733 8.036834716796875 128 81 63
1.19608414173126221 0.381296515464782715 7.90093564987182617 97 64 52
1.14530527591705322 0.443740010261535645 8.03995323181152344 128 81 63
-2.87583518028259277 0.358579158782958984 9.04069232940673828 127 87 77
0.773475289344787598 0.587620794773101807 9.53822803497314453 136 81 68
0.236393183469772339 3.15956330299377441 10.3181324005126953 210 197 189
-1.6120830774307251 0.20143359899520874 9.51993656158447266 122 90 85
-1.50693178176879883 1.69032275676727295 8.96704292297363281 194 194 194
-2.40107131004333496 0.396416515111923218 9.18463134765625 132 95 85
2.68135809898376465 1.8876875638961792 10.2816753387451172 209 192 182
0.793232142925262451 -1.07595813274383545 8.60016250610351562 115 80 61
1.49292171001434326 2.09377169609069824 10.3411045074462891 210 192 181
-2.47956442832946777 -0.362575322389602661 5.4894251823425293 115 73 57
-0.378694862127304077 3.23422527313232422 10.3188190460205078 208 198 189
-3.1388247013092041 0.435320585966110229 9.73681354522705078 147 96 80
3.80361366271972656 2.72805905342102051 10.3097734451293945 188 161 142
3.23222208023071289 -0.259900748729705811 8.80309677124023438 128 77 67
0.0813524127006530762 -1.12732219696044922 8.91916370391845703 132 76 59
-1.8755345344543457 -0.251297652721405029 7.46956300735473633 155 120 110
1.18711447715759277 0.332739561796188354 8.29104042053222656 124 65 49
-2.22658991813659668 -0.133563578128814697 6.77190399169921875 128 82 67
3.44001269340515137 3.30394816398620605 10.3193235397338867 183 166 152
4.40353584289550781 0.638931751251220703 10.2992172241210938 203 191 177
-2.36765265464782715 -0.0201013144105672836 7.13672447204589844 161 118 102
3.45270204544067383 -0.20868876576423645 8.39145088195800781 140 90 79
4.20100784301757812 2.99807143211364746 10.3222246170043945 200 190 181
3.50909233093261719 -0.171632364392280579 8.40284442901611328 178 132 117
-4.39844179153442383 2.19446611404418945 10.3304853439331055 210 201 194
-2.21685600280761719 0.10356447845697403 7.98008155822753906 97 60 54
-0.838453590869903564 3.11214327812194824 10.3245658874511719 209 196 188
0.655005335807800293 0.452314108610153198 9.62572097778320312 111 52 44
6.77351045608520508 -0.625279486179351807 10.2412147521972656 206 196 186
-2.90015745162963867 0.247720047831535339 8.51629829406738281 122 74 64
0.764409542083740234 -1.13971221446990967 8.30517387390136719 112 70 55
-3.32676982879638672 0.217423424124717712 8.95918750762939453 136 74 61
-1.88472080230712891 -0.578023016452789307 7.59788274765014648 108 76 63
3.54876708984375 -0.134481221437454224 8.45572280883789062 146 97 82
-3.03590488433837891 0.481813043355941772 9.82579326629638672 105 47 36
-2.4855496883392334 -0.0359382666647434235 6.92891693115234375 97 72 59
0.414177447557449341 -0.985816538333892822 9.10184669494628906 113 66 50
2.90521836280822754 -0.60730057954788208 10.1096353530883789 150 91 61
3.12567830085754395 -0.58203279972076416 9.33453559875488281 159 102 83
-0.226715639233589172 -1.01825582981109619 10.0400447845458984 188 144 131
-1.69212853908538818 -0.607717692852020264 8.27971267700195312 163 136 127
3.55800461769104004 -0.230123415589332581 8.09029293060302734 157 105 91
0.399477481842041016 -0.804073691368103027 10.0272150039672852 114 68 55
-2.48894810676574707 -0.0350790582597255707 6.91226434707641602 97 72 59
-2.24180793762207031 -0.414341628551483154 6.2968897819519043 145 103 91
-2.35706782341003418 0.18232707679271698 8.13683795928955078 185 166 159
0.594521403312683105 0.590306222438812256 10.0393915176391602 173 127 112
-2.96020722389221191 0.121717080473899841 7.91060590744018555 109 60 46
-1.79641306400299072 0.356233984231948853 9.7270355224609375 188 165 159
-8.14004325866699219 2.50605964660644531 10.3308839797973633 180 169 160
-0.179160833358764648 2.2732391357421875 10.2996444702148438 188 174 161
3.91795849800109863 2.75266313552856445 10.3298759460449219 207 187 172
-1.92437195777893066 0.542629718780517578 10.3788280487060547 210 195 190
