ply
format ascii 1.0
element vertex 654
property float x
property float y
property float z
property uchar red
property uchar green
property uchar blue
end_header
-3.31895256042480469 -0.632540583610534668 3.95280218124389648 105 59 43
1.55723631381988525 -0.833622753620147705 4.62338781356811523 141 112 104
-2.63945317268371582 -0.678872048854827881 4.0087885856628418 116 73 59
-1.70840144157409668 -0.783800721168518066 4.87050485610961914 203 182 170
-2.82384324073791504 -0.563484668731689453 3.56720066070556641 147 105 90
-2.38224935531616211 0.360838949680328369 4.76754426956176758 110 77 72
-1.96151506900787354 -0.499487698078155518 3.90220308303833008 107 75 64
-0.235459998250007629 -1.23035764694213867 4.7758021354675293 170 128 108
-2.24372339248657227 0.0748369470238685608 3.86897826194763184 93 63 53
-2.15728640556335449 0.0781204178929328918 3.94169235229492188 116 84 69
-2.61198997497558594 -0.148165300488471985 2.88174724578857422 130 79 61
-9.90054130554199219 -0.36706194281578064 4.88065528869628906 180 167 158
-1.81149673461914062 0.0792427361011505127 4.28046560287475586 143 117 107
-2.67410612106323242 -0.51417231559753418 3.38669395446777344 124 80 64
-2.98385190963745117 -0.546540319919586182 3.53544330596923828 128 89 77
2.9433741569519043 1.27401113510131836 4.88573646545410156 184 166 152
-2.57445859909057617 -0.324104398488998413 2.82009100914001465 134 92 78
-1.17885291576385498 -0.868327975273132324 5.25226593017578125 207 190 180
-2.92762660980224609 -0.0441588200628757477 3.20946121215820312 159 115 94
-2.8104712963104248 -0.648165762424468994 4.0018305778503418 162 116 102
-2.20932555198669434 -0.453723371028900146 3.52145099639892578 155 138 129
-9.77901744842529297 -1.668601393699646 4.86737680435180664 206 194 182
-2.34468269348144531 -0.0617395341396331787 3.3938443660736084 153 124 104
1.45767867565155029 -0.689431488513946533 4.88798427581787109 116 67 62
-0.248279407620429993 -1.03570783138275146 4.43754863739013672 180 133 113
-0.0929975882172584534 -0.750821232795715332 4.60028743743896484 154 109 90
-2.01680970191955566 -0.205212876200675964 3.50267577171325684 119 87 76
-2.20204567909240723 -0.452404528856277466 3.51562714576721191 155 138 129
1.47851419448852539 -1.0551149845123291 4.52859973907470703 162 128 116
7.23434829711914062 0.782316446304321289 4.88963413238525391 202 193 184
-1.44479620456695557 -0.364178270101547241 4.34435176849365234 172 132 116
6.51143169403076172 1.0109633207321167 4.88786506652832031 206 193 184
-2.55602693557739258 -0.485372036695480347 3.33791732788085938 124 81 65
-3.15265130996704102 -0.470666259527206421 3.34391546249389648 166 123 107
-3.22498297691345215 -0.485319763422012329 3.44074535369873047 129 85 71
-7.86365318298339844 -2.14270782470703125 4.86794376373291016 207 195 183
-2.88947057723999023 -0.160316303372383118 2.8265230655670166 108 62 47
-4.5309300422668457 -0.424621880054473877 4.95547342300415039 102 31 26
-2.00075125694274902 -0.10487811267375946 3.66615962982177734 101 58 52
7.63337278366088867 0.0974674448370933533 4.87574291229248047 204 192 178
-2.53376197814941406 -0.742634475231170654 4.25921201705932617 162 125 109
-2.06987881660461426 -0.206736043095588684 3.42334318161010742 104 72 61
-5.57786655426025391 0.376371115446090698 4.87464714050292969 206 196 186
-0.00803597737103700638 -0.823977887630462646 4.20305681228637695 151 98 84
-2.6808478832244873 -0.854220032691955566 4.699462890625 148 112 102
-3.26710367202758789 -0.203303933143615723 3.07419753074645996 114 68 53
-3.56117701530456543 -0.635506033897399902 4.14433526992797852 176 129 111
-2.92268967628479004 -0.699416577816009521 4.07321643829345703 125 93 80
7.08422374725341797 0.823759675025939941 4.87869834899902344 184 167 154
-3.04569840431213379 -0.526974022388458252 3.51268315315246582 134 96 78
-2.9441993236541748 -0.348980039358139038 2.8169090747833252 120 62 44
-1.84859776496887207 -0.435685306787490845 3.90352296829223633 107 76 66
-2.36618494987487793 0.211507931351661682 4.24406337738037109 188 155 148
-3.9774329662322998 -0.693253695964813232 4.68461465835571289 137 91 75
-1.31050729751586914 0.0679714605212211609 4.79709291458129883 97 63 54
-5.57786655426025391 0.376371115446090698 4.87464714050292969 206 196 186
7.63337278366088867 0.0974674448370933533 4.87574291229248047 204 192 178
-2.65437054634094238 0.2160453200340271 4.17292547225952148 74 33 27
-5.92712545394897461 -1.28222823143005371 4.85596132278442383 204 191 183
-2.62586188316345215 -0.101217485964298248 3.03096318244934082 149 100 86
-5.92712545394897461 -1.28222823143005371 4.85596132278442383 204 191 183
-2.00654196739196777 -0.526066780090332031 3.91228556632995605 125 85 75
-0.410934478044509888 -1.13215732574462891 4.82932090759277344 143 85 65
-3.76370716094970703 -0.0126593848690390587 4.01004695892333984 142 94 80
0.130890101194381714 -0.714058220386505127 4.22075796127319336 125 66 50
0.175827577710151672 -0.809199333190917969 4.0468754768371582 157 108 91
-2.90132784843444824 -0.676989316940307617 3.96662592887878418 108 74 64
0.472358524799346924 -0.573565661907196045 4.65353202819824219 107 55 42
-3.0651400089263916 -0.627997696399688721 3.8373878002166748 89 53 40
-3.32922530174255371 -0.410913139581680298 3.34014678001403809 155 109 94
-2.16878485679626465 -0.377143979072570801 3.39754939079284668 192 159 144
7.67845630645751953 -0.787420272827148438 4.90980339050292969 205 192 183
-2.0711212158203125 -0.646753132343292236 4.1842494010925293 114 79 73
-1.91247224807739258 -0.743918359279632568 4.67417287826538086 117 60 43
-3.3254544734954834 -0.762929201126098633 4.40911293029785156 130 84 68
-0.529548883438110352 -0.835971474647521973 4.889892578125 143 91 79
1.00566577911376953 -0.645092666149139404 4.49222850799560547 86 39 35
-2.97408628463745117 -0.123054265975952148 2.95343995094299316 145 101 86
7.54036045074462891 -0.461515098810195923 4.89177322387695312 204 195 190
0.253620296716690063 -1.23701131343841553 4.3848419189453125 173 131 114
-2.92568349838256836 0.145207196474075317 3.90885376930236816 159 112 100
-1.69223558902740479 0.00885362084954977036 4.22661161422729492 167 134 127
-2.35244894027709961 0.163522064685821533 4.10994148254394531 86 49 40
-3.13141012191772461 -0.377269506454467773 3.0493166446685791 152 110 90
-2.80123734474182129 -0.245685875415802002 2.55499458312988281 131 89 73
7.00413799285888672 0.902406454086303711 4.87953090667724609 204 188 175
-3.25352835655212402 -0.526215732097625732 3.58394908905029297 140 89 75
-1.59629786014556885 0.0099688265472650528 4.35099267959594727 148 118 107
-2.81221365928649902 -0.333315223455429077 2.73317241668701172 118 67 54
-1.68333649635314941 -0.1384848952293396 4.02371311187744141 98 72 62
0.122796550393104553 -0.774964332580566406 4.14539718627929688 118 59 43
-3.77553510665893555 0.146108418703079224 4.39792680740356445 123 69 57
-2.28216934204101562 -0.606214702129364014 3.93606042861938477 109 79 68
-2.3253483772277832 -0.462116271257400513 3.48951506614685059 124 81 65
-1.22847127914428711 -0.180493935942649841 4.62478923797607422 193 170 159
-1.81156051158905029 -0.0655094683170318604 3.94051337242126465 154 129 122
-1.63951349258422852 0.269353747367858887 4.86713123321533203 201 187 178
-2.69457840919494629 0.160501360893249512 3.95949363708496094 80 39 37
0.678981602191925049 -0.617495536804199219 4.48137474060058594 94 65 58
-2.1544349193572998 -0.0544992499053478241 3.5732886791229248 139 107 96
3.47856783866882324 0.1799946129322052 4.87891721725463867 206 192 183
0.980601370334625244 1.22168612480163574 4.87804269790649414 210 198 186
-2.41378116607666016 -0.254532843828201294 2.95095109939575195 155 113 101
-1.72217142581939697 0.107283115386962891 4.42515802383422852 115 92 86
-2.1184089183807373 -0.153593331575393677 3.43216156959533691 164 126 117
-1.3652876615524292 -0.205180272459983826 4.42207241058349609 134 87 71
-2.50489044189453125 -0.899332761764526367 4.82847023010253906 164 134 122
-2.40654754638671875 0.108867920935153961 3.88592720031738281 75 47 36
-3.07594680786132812 0.211375400424003601 4.17761754989624023 102 63 54
-3.2649071216583252 -0.651201963424682617 4.01528644561767578 132 85 69
-1.60524725914001465 -0.351715415716171265 4.11596918106079102 157 112 93
-1.31384944915771484 -0.311532407999038696 4.48789548873901367 129 86 67
-3.55642509460449219 0.473898202180862427 4.87807512283325195 205 196 187
-3.00826597213745117 0.346164166927337646 4.70159530639648438 108 56 52
-0.134258285164833069 -0.732178866863250732 4.54717588424682617 133 90 73
-3.82725739479064941 0.0315213426947593689 4.18005990982055664 122 73 57
-3.58459186553955078 -0.842756330966949463 4.83887529373168945 151 132 121
-2.7524871826171875 -0.511909961700439453 3.3750004768371582 176 134 120
-0.338170677423477173 -0.903400897979736328 4.53171539306640625 146 99 84
0.500525176525115967 -0.772763252258300781 3.91013598442077637 119 68 54
0.111373111605644226 -1.30790412425994873 4.70315265655517578 144 101 85
-0.0121211018413305283 -1.26854991912841797 4.66104841232299805 161 105 90
-2.18371009826660156 -0.522187173366546631 3.74903011322021484 196 158 149
5.95578861236572266 -1.39442694187164307 4.87544679641723633 203 196 188
0.635637581348419189 -0.920688211917877197 3.34186649322509766 122 73 56
-2.17838168144226074 0.122252948582172394 4.02349138259887695 117 84 74
0.513926982879638672 -0.93332749605178833 3.3560945987701416 116 67 50
-2.70143818855285645 0.160666793584823608 3.96467089653015137 85 42 35
-9.96576976776123047 0.115663871169090271 4.87764692306518555 203 190 182
0.846752941608428955 -0.895176410675048828 3.63071608543395996 192 156 137
-2.42191982269287109 -0.0306663736701011658 3.42003035545349121 159 118 100
-2.4978938102722168 -0.0197174232453107834 3.37345314025878906 106 59 41
-1.69460856914520264 -0.784159719944000244 4.90710544586181641 205 185 174
-2.59973883628845215 0.108326032757759094 3.78854036331176758 175 153 146
-3.3838346004486084 0.138403341174125671 4.05489063262939453 158 105 91
0.513926982879638672 -0.93332749605178833 3.3560945987701416 116 67 50
-2.18063735961914062 0.130019575357437134 4.08360004425048828 114 77 68
-0.208980903029441833 -1.02554225921630859 4.37168788909912109 140 93 74
-2.31678342819213867 0.0656669139862060547 3.76881074905395508 164 130 121
0.449723213911056519 -0.819563448429107666 3.75496053695678711 152 105 89
-2.48206925392150879 -0.80342024564743042 4.50187397003173828 116 63 51
-3.4669497013092041 -0.189662262797355652 3.34599018096923828 148 98 84
-2.93549585342407227 -0.453954041004180908 3.15503597259521484 124 85 69
-2.65387058258056641 0.216073572635650635 4.17301797866821289 74 33 27
-1.5233461856842041 -0.299202024936676025 4.21303319931030273 111 65 49
-4.15622282028198242 -0.579090476036071777 4.62001228332519531 199 158 138
-2.24893879890441895 0.123666517436504364 4.00131988525390625 92 59 52
-1.72737801074981689 -0.42389833927154541 4.0306544303894043 162 130 115
0.273973166942596436 -0.755504131317138672 4.0823211669921875 150 93 76
-2.96392393112182617 -0.88835453987121582 4.78150081634521484 124 79 66
0.661139011383056641 -0.692412197589874268 4.16388368606567383 94 45 38
0.829827249050140381 -1.01115298271179199 3.41243171691894531 196 182 173
0.556892693042755127 -0.838271856307983398 3.6692512035369873 176 132 119
-1.31052827835083008 -0.369277894496917725 4.51002788543701172 150 101 84
0.360834687948226929 -0.90015721321105957 3.5958411693572998 107 68 53
-1.45228266716003418 -0.581718027591705322 4.64309024810791016 181 150 132
0.83356773853302002 -0.932305335998535156 3.58218598365783691 109 61 47
4.43564605712890625 1.32677972316741943 4.87781047821044922 209 196 187
-1.41352403163909912 0.0564377978444099426 4.66448211669921875 171 142 134
-1.97833108901977539 -0.471555948257446289 3.82170605659484863 111 76 61
0.349728107452392578 -0.850074946880340576 3.74166297912597656 198 161 143
-1.75859940052032471 -0.0248141307383775711 4.08885669708251953 75 51 41
-2.57823920249938965 -0.718862473964691162 4.15342426300048828 173 141 128
-1.75660407543182373 -0.865912258625030518 4.87125778198242188 194 181 172
1.36199688911437988 -0.73472297191619873 4.556732177734375 183 157 144
6.77857542037963867 1.19951295852661133 4.87473869323730469 207 193 184
-2.49521756172180176 -0.455092579126358032 3.27533316612243652 103 57 41
0.443525135517120361 -1.22705888748168945 4.25286102294921875 131 96 79
2.95076417922973633 -0.477107852697372437 4.87823867797851562 187 173 164
-1.08295238018035889 -0.311251640319824219 4.79151821136474609 161 132 121
-2.26401853561401367 -0.215037137269973755 3.18618583679199219 163 121 109
1.05209517478942871 -0.7380409836769104 4.22481298446655273 172 142 124
0.937733769416809082 -0.742582857608795166 4.15037918090820312 112 64 44
2.95641803741455078 -0.544524550437927246 4.87919092178344727 208 196 190
2.95080041885375977 -0.477216035127639771 4.87831640243530273 187 173 164
-1.88245809078216553 -0.807052433490753174 4.81829547882080078 124 87 71
-1.45388102531433105 -0.541121721267700195 4.56479454040527344 173 136 117
0.34543222188949585 -0.708240270614624023 4.42475175857543945 99 57 49
-2.66216158866882324 -0.0830828249454498291 3.07720160484313965 107 62 47
-2.48522186279296875 -0.111718691885471344 3.10928440093994141 111 65 49
-2.1297304630279541 -0.257348775863647461 3.35344815254211426 159 119 107
-3.00808858871459961 -0.463163435459136963 3.23489904403686523 131 89 73
-1.34160780906677246 -0.248376056551933289 4.42259454727172852 133 86 68
0.578157782554626465 -1.31829023361206055 4.56422281265258789 114 74 64
-2.05598068237304688 -0.407803922891616821 3.56373023986816406 161 137 124
0.0549905300140380859 -1.08028912544250488 4.10919761657714844 161 117 104
0.230141013860702515 -0.875543355941772461 3.80271172523498535 183 141 124
-3.5061647891998291 -0.645991742610931396 4.14240884780883789 125 79 60
0.868867218494415283 -0.826329708099365234 3.8441917896270752 156 109 91
-1.42779767513275146 -0.311192750930786133 4.32552766799926758 125 92 73
0.729946017265319824 -0.724984347820281982 4.06212759017944336 88 59 48
-2.25481820106506348 -0.552248775959014893 3.7093207836151123 173 143 129
-9.83198738098144531 -1.99358224868774414 4.9274907112121582 181 163 149
-2.39732646942138672 -0.040286622941493988 3.37558484077453613 139 101 85
5.03988122940063477 0.145075708627700806 4.84885168075561523 187 168 161
0.465210646390914917 -0.917256951332092285 3.44721269607543945 172 132 118
-2.31651401519775391 0.0658652409911155701 3.77036595344543457 153 113 106
1.78520846366882324 1.44427025318145752 4.88044548034667969 205 195 183
-1.94220685958862305 0.235630065202713013 4.5942234992980957 180 155 149
-7.72013616561889648 -1.90298986434936523 4.8769378662109375 204 192 180
0.311981678009033203 -0.916587650775909424 3.63381695747375488 180 142 128
-1.75167322158813477 -0.550846636295318604 4.26882553100585938 110 71 54
-4.38490152359008789 -0.553366303443908691 4.86152935028076172 114 71 54
1.40892517566680908 -1.06333482265472412 4.41730690002441406 90 54 42
-0.460088521242141724 1.51020312309265137 4.87963628768920898 188 172 157
-2.67470717430114746 -0.430277705192565918 3.08954024314880371 173 137 121
-2.32402586936950684 0.339741051197052002 4.71207809448242188 67 32 28
-1.03642177581787109 1.54849505424499512 4.87884378433227539 183 170 161
-0.162744998931884766 -1.00137126445770264 4.26534461975097656 147 100 82
-0.19759918749332428 -1.09843897819519043 4.45134639739990234 176 125 108
1.60586273670196533 -1.01022541522979736 4.61648941040039062 100 54 42
-2.5133674144744873 -0.468807846307754517 3.31160926818847656 129 88 70
1.40055406093597412 -0.960746228694915771 4.33497285842895508 96 53 44
1.72648048400878906 -1.00126636028289795 4.77924060821533203 88 50 40
0.449300318956375122 -1.33051216602325439 4.62095117568969727 146 116 105
1.05011796951293945 -0.840762674808502197 3.99333930015563965 115 69 54
0.47225305438041687 -0.810501754283905029 3.79982566833496094 149 96 82
-2.31343460083007812 0.969649910926818848 4.88582277297973633 189 171 161
-2.09863114356994629 0.200843736529350281 4.35753631591796875 198 191 186
1.04205703735351562 -0.824575722217559814 4.00541591644287109 166 121 102
0.217413172125816345 -0.786262333393096924 4.05805063247680664 157 106 89
-0.205999836325645447 -0.717305898666381836 4.65808248519897461 169 123 107
-3.13266801834106445 -0.217518270015716553 2.87413239479064941 132 95 78
-1.74140381813049316 -0.511920571327209473 4.15342473983764648 138 95 79
-2.72021198272705078 0.265554219484329224 4.34159612655639648 165 131 119
-2.51206398010253906 -0.141340106725692749 2.99867677688598633 124 80 67
0.176863983273506165 -0.809606671333312988 4.04945564270019531 157 110 94
-1.81364023685455322 -0.0688044652342796326 3.94321846961975098 160 138 127
0.175997599959373474 -0.78423386812210083 4.07786035537719727 119 70 53
-4.35747480392456055 -0.274052709341049194 4.55082178115844727 133 89 76
-1.17141568660736084 0.0341711081564426422 4.83879613876342773 209 184 174
-2.67758703231811523 -0.628911375999450684 3.93136858940124512 121 75 60
-1.28413057327270508 -0.0312251094728708267 4.66439390182495117 72 35 26
-2.76236295700073242 -0.404331177473068237 2.89086222648620605 164 137 117
0.993678033351898193 -0.590976476669311523 4.71039438247680664 72 42 34
-1.83843278884887695 -0.39116397500038147 3.86420178413391113 153 133 124
-2.27919244766235352 0.0777797028422355652 3.84581160545349121 169 137 126
-3.08855104446411133 -0.525695502758026123 3.49409842491149902 149 108 92
-3.39278912544250488 -0.612784624099731445 3.92334794998168945 149 95 79
-1.69651973247528076 -0.272416114807128906 3.94196176528930664 143 95 85
-2.1876366138458252 0.164146080613136292 4.19401931762695312 104 70 68
-1.94632971286773682 0.283513307571411133 4.75913381576538086 77 47 44
-2.22861075401306152 0.209619835019111633 4.32691717147827148 138 111 102
-3.17675185203552246 -0.787691593170166016 4.44683313369750977 110 72 62
1.21170997619628906 -0.921033143997192383 4.06897115707397461 107 65 52
-4.5284419059753418 1.01976478099822998 4.8769688606262207 202 194 191
0.923489212989807129 -0.849287152290344238 3.80762791633605957 154 108 93
1.04205703735351562 -0.824575722217559814 4.00541591644287109 166 121 102
-3.29726386070251465 -0.690965652465820312 4.15133428573608398 138 91 75
0.0333802066743373871 -0.664291203022003174 4.56095027923583984 178 125 109
-3.02541518211364746 0.310180872678756714 4.59048128128051758 108 54 42
-2.56838607788085938 -0.48581242561340332 3.33481311798095703 123 80 63
-1.16707396507263184 -0.40645301342010498 4.74733734130859375 180 136 123
-2.51206398010253906 -0.141340106725692749 2.99867677688598633 124 80 67
0.227143466472625732 -0.87602764368057251 3.81006813049316406 197 160 142
0.875004231929779053 -0.730695247650146484 4.12934255599975586 139 94 73
0.108350381255149841 -0.746356666088104248 4.26016139984130859 154 96 78
-2.27310967445373535 -0.376299291849136353 3.28854990005493164 109 61 49
-0.123114101588726044 -0.75928729772567749 4.47451210021972656 163 117 101
-1.88826024532318115 -0.3634757399559021 3.75196337699890137 120 95 83
0.885943293571472168 -0.555064558982849121 4.76321601867675781 100 73 62
-1.24548828601837158 0.0194454975426197052 4.80841588973999023 113 73 65
7.47151422500610352 1.07705235481262207 4.89849853515625 205 193 183
0.230768024921417236 -1.04172444343566895 3.82776165008544922 113 69 53
-0.0701600909233093262 -1.13825929164886475 4.37196111679077148 179 132 116
0.666639506816864014 -0.935024261474609375 4.74358320236206055 149 99 87
-1.57329905033111572 0.222213238477706909 4.84904670715332031 76 45 37
-0.130025580525398254 -0.955253779888153076 4.22345638275146484 160 107 93
-2.2167201042175293 -0.560019850730895996 3.82090067863464355 155 127 111
-1.24749159812927246 0.0209035668522119522 4.80390691757202148 114 74 66
0.182935476303100586 -0.896467864513397217 3.83580899238586426 113 66 50
-0.0279360190033912659 -0.934018373489379883 4.08597660064697266 111 59 46
-2.50227475166320801 -0.197916209697723389 2.87633037567138672 164 131 116
-2.28129339218139648 -0.725003540515899658 4.29000329971313477 104 61 47
-2.74968481063842773 -0.0440515540540218353 3.19079256057739258 102 67 47
1.19602835178375244 -2.13827371597290039 4.88334274291992188 191 172 161
-2.22703003883361816 -0.288215845823287964 3.24773764610290527 114 68 55
0.7830771803855896 -0.879147827625274658 3.56606698036193848 207 192 183
-3.29930305480957031 -0.0411640554666519165 3.46100807189941406 141 90 73
-2.54145026206970215 0.211830660700798035 4.17783546447753906 130 87 80
3.23334193229675293 1.47190427780151367 4.87942934036254883 206 196 185
-8.26439380645751953 -0.92243725061416626 4.87458705902099609 208 200 192
-2.79892110824584961 -0.258312433958053589 2.49678325653076172 160 117 100
-4.38998794555664062 -0.506886899471282959 4.79759550094604492 121 65 45
-3.18495774269104004 -0.813415288925170898 4.55473518371582031 184 148 135
-0.513360142707824707 -0.884573161602020264 4.82535457611083984 163 121 103
-2.426849365234375 -0.564113318920135498 3.70517969131469727 156 116 102
0.841547191143035889 -0.637205719947814941 4.43889904022216797 77 39 32
-1.86726796627044678 -0.675019323825836182 4.4544224739074707 134 82 68
-2.26444268226623535 -0.0164328385144472122 3.5713660717010498 157 120 104
-3.5645592212677002 -0.194559946656227112 3.47663569450378418 138 88 76
1.13048982620239258 -0.622875630855560303 4.65760707855224609 174 144 134
-3.38136458396911621 -0.291334629058837891 3.2209172248840332 97 47 38
-2.70726776123046875 -0.288309812545776367 2.46446728706359863 89 57 44
-1.31921827793121338 -0.513169646263122559 4.69438600540161133 154 117 99
-2.61075258255004883 -0.238675490021705627 2.6851038932800293 113 69 56
-8.19169902801513672 0.424761295318603516 4.87676191329956055 186 172 161
-1.45687925815582275 -0.0451600737869739532 4.42573213577270508 126 83 66
-2.3813178539276123 0.252886056900024414 4.37928009033203125 66 39 30
-0.246189787983894348 -0.889193594455718994 4.41598796844482422 115 64 52
-3.58161687850952148 -0.694984614849090576 4.39335966110229492 140 93 77
0.17637808620929718 -0.793751835823059082 4.11010646820068359 129 80 63
-0.499478965997695923 -0.875455021858215332 4.74883031845092773 163 121 103
-1.09775006771087646 -0.114632792770862579 4.81563425064086914 155 115 105
-1.25699341297149658 -0.602037608623504639 4.83961105346679688 220 196 189
-2.76524138450622559 0.0920079052448272705 3.69563055038452148 146 112 102
-0.361069738864898682 -1.1176295280456543 4.6697382926940918 159 96 78
-1.45781433582305908 0.0367266274988651276 4.58220005035400391 135 99 89
0.151282668113708496 -1.18606209754943848 4.28061246871948242 188 145 128
0.164156556129455566 -0.672125160694122314 4.43070220947265625 120 68 54
-3.73164129257202148 -0.210150763392448425 3.71598553657531738 111 62 48
3.90987133979797363 -1.15618038177490234 4.87747526168823242 205 194 183
-1.76871538162231445 0.142956987023353577 4.47941255569458008 98 61 53
-2.15403223037719727 -0.795570611953735352 4.61103677749633789 151 132 123
-2.43584275245666504 0.0811407417058944702 3.79583358764648438 86 47 42
0.259934902191162109 -1.31374502182006836 4.53229713439941406 96 54 42
0.568536341190338135 -0.919699370861053467 3.36229753494262695 154 108 93
-2.21398448944091797 0.184540852904319763 4.2424311637878418 72 42 36
-1.8827744722366333 0.23039129376411438 4.62241220474243164 85 56 50
-2.16878485679626465 -0.377143979072570801 3.39754939079284668 192 159 144
-0.115744791924953461 -1.11861717700958252 4.42571353912353516 116 60 45
-1.85095179080963135 0.253610223531723022 4.73030233383178711 118 93 88
-2.10593414306640625 0.228052452206611633 4.47195720672607422 150 138 131
-2.54680156707763672 0.234560534358024597 4.2719111442565918 92 46 39
1.25970721244812012 -0.58881145715713501 4.87455511093139648 88 59 41
-2.0833587646484375 -0.676385343074798584 4.26819849014282227 104 59 51
-2.76465153694152832 0.196004852652549744 4.0747075080871582 85 43 33
1.51367723941802979 -0.857425987720489502 4.50183200836181641 163 128 119
1.03865182399749756 -0.81015324592590332 4.04909038543701172 125 82 63
-1.43485629558563232 -0.404742032289505005 4.39026403427124023 176 141 129
-0.375510156154632568 -0.916993856430053711 4.59368467330932617 119 73 58
-2.50001811981201172 -0.0620159842073917389 3.24196219444274902 164 122 100
1.27292764186859131 -0.874439060688018799 4.18453216552734375 112 74 65
-0.210999622941017151 -0.717050790786743164 4.661224365234375 171 128 109
-0.317323446273803711 -1.0181344747543335 4.48648643493652344 163 110 92
-2.54680156707763672 0.234560534358024597 4.2719111442565918 92 46 39
0.905204653739929199 -0.905077576637268066 3.69295334815979004 155 118 100
-2.42831563949584961 -0.822412431240081787 4.57216835021972656 166 115 98
1.5342327356338501 -0.932823121547698975 4.52849578857421875 104 66 57
-3.13122105598449707 -0.210350185632705688 2.93515348434448242 143 107 91
-1.72657346725463867 -0.703543603420257568 4.66980409622192383 112 77 58
-1.4292454719543457 -0.621265590190887451 4.74673795700073242 199 152 144
1.04922723770141602 -0.907606303691864014 3.8995664119720459 98 50 38
-1.89493691921234131 -0.781239986419677734 4.72881031036376953 181 150 129
-2.77622175216674805 -0.0699643418192863464 3.0975947380065918 147 103 85
5.93795299530029297 -1.08431732654571533 4.77826166152954102 185 167 157
-1.49390864372253418 -0.151292800903320312 4.26290273666381836 128 84 73
-2.85962343215942383 0.228970915079116821 4.19636869430541992 117 81 69
-2.41232562065124512 -0.648392915725708008 3.96881723403930664 190 160 149
-2.41682934761047363 -0.254665106534957886 2.95342850685119629 153 111 99
0.152415886521339417 -0.638188004493713379 4.56425952911376953 111 59 46
-1.80984687805175781 0.130313888192176819 4.38635015487670898 115 80 74
-3.56112957000732422 -0.0673557594418525696 3.65049386024475098 116 73 57
-2.4176790714263916 0.319709986448287964 4.61171388626098633 97 66 63
-3.03867816925048828 1.33691942691802979 4.87718534469604492 207 197 188
-2.38177776336669922 -0.177830487489700317 3.11235451698303223 111 64 51
-2.41348099708557129 -0.284266144037246704 2.96967244148254395 159 121 109
6.77213573455810547 1.54747319221496582 4.86616992950439453 205 194 187
0.937851607799530029 -0.877748012542724609 3.77111554145812988 140 96 84
-7.72904157638549805 -2.23493766784667969 4.86529254913330078 207 193 183
0.138876393437385559 -0.730243086814880371 4.26549720764160156 117 60 43
-2.40857172012329102 -0.249608561396598816 2.97631072998046875 129 86 75
-1.50053119659423828 -0.0374532900750637054 4.38746881484985352 128 92 74
1.07506322860717773 -0.644774913787841797 4.38583660125732422 111 62 53
-3.73493361473083496 -0.281701862812042236 3.69629263877868652 147 85 62
3.61077880859375 2.1383817195892334 4.88240909576416016 186 172 161
-2.95081782341003418 -0.110957488417625427 3.10900259017944336 127 69 57
-1.55403876304626465 -0.466240078210830688 4.49535131454467773 162 143 128
0.12369856983423233 -0.770461440086364746 4.1265711784362793 124 65 49
-3.42142653465270996 0.357060819864273071 4.83036613464355469 163 113 97
0.191225498914718628 -0.593948900699615479 4.74653911590576172 112 53 39
-2.57646417617797852 -0.272905737161636353 2.73304319381713867 97 52 39
-1.70201599597930908 -0.523964285850524902 4.26927614212036133 123 74 59
6.53740739822387695 0.0336389541625976562 4.88045692443847656 185 168 157
-3.55219101905822754 -0.541436672210693359 3.89398455619812012 159 109 90
-3.00134086608886719 -0.367260843515396118 2.84296321868896484 203 193 184
-3.50363922119140625 -0.5519217848777771 3.86633658409118652 136 88 68
-2.01038575172424316 0.138686656951904297 4.29175376892089844 77 40 35
-2.31204390525817871 -0.849982321262359619 4.70459270477294922 131 96 79
-2.00980567932128906 0.138653874397277832 4.29216718673706055 77 40 35
-2.33843350410461426 -0.182926207780838013 3.09245419502258301 95 47 36
-1.98878896236419678 0.0290145520120859146 3.91965150833129883 124 76 69
-1.35421264171600342 -0.588503062725067139 4.79132175445556641 166 113 97
-0.101529471576213837 -0.836065709590911865 4.28380298614501953 170 122 110
-4.37211370468139648 -0.40508231520652771 4.63811683654785156 198 152 131
-2.40555143356323242 -0.908225059509277344 4.86917304992675781 202 183 173
5.52906274795532227 1.18908679485321045 4.88367414474487305 206 194 182
-2.03833651542663574 -0.1506987065076828 3.53780317306518555 86 50 38
-2.44131827354431152 0.192426532506942749 4.08223819732666016 97 53 40
-1.8759382963180542 -0.197406485676765442 3.70813441276550293 73 43 33
-3.81446027755737305 -0.447368204593658447 3.97715663909912109 173 126 105
1.28218770027160645 -0.0150167997926473618 4.87742710113525391 210 193 185
-4.2994685173034668 -0.43318939208984375 4.56458282470703125 154 109 85
-1.95859277248382568 -0.305168032646179199 3.59029006958007812 89 46 39
-2.4323890209197998 -0.205141037702560425 2.97875428199768066 120 76 65
-3.19036459922790527 -0.795741677284240723 4.52788209915161133 101 64 52
-2.72408652305603027 -0.265180677175521851 2.54752826690673828 135 97 78
-2.52603244781494141 -0.219103202223777771 2.82011961936950684 125 84 70
0.923321247100830078 -0.640299022197723389 4.4694056510925293 85 48 39
-0.892165243625640869 1.38178932666778564 4.87583732604980469 209 199 189
-2.73649024963378906 -0.703651368618011475 4.08095264434814453 108 68 56
0.104215577244758606 -1.33873605728149414 4.81899642944335938 109 54 41
1.22070586681365967 -0.729388236999511719 4.41911792755126953 144 108 92
-2.00440621376037598 -0.437690883874893188 3.70404911041259766 100 71 55
-8.83046817779541016 -0.982437610626220703 4.851043701171875 205 195 186
1.12235772609710693 -1.28106284141540527 4.60727643966674805 200 177 161
-2.63024568557739258 -0.235378921031951904 2.66305184364318848 97 49 35
5.36110591888427734 0.586940288543701172 4.88962888717651367 188 171 163
-2.96132683753967285 -0.0831081196665763855 3.05060791969299316 138 82 69
2.79557633399963379 0.889044761657714844 4.87823200225830078 211 194 184
1.83434164524078369 0.264273673295974731 4.88175868988037109 186 162 147
-1.89431858062744141 -0.148151606321334839 3.74431371688842773 102 74 63
7.33685445785522461 0.824303150177001953 4.86566925048828125 182 165 155
-2.81091904640197754 1.45628845691680908 4.87537622451782227 185 171 160
-1.50098073482513428 -0.376848220825195312 4.27797889709472656 157 124 105
-0.00361476629041135311 -0.725072085857391357 4.38803768157958984 130 79 61
-4.08269882202148438 -0.385180145502090454 4.21029472351074219 142 78 50
5.39341306686401367 1.08733904361724854 4.87623977661132812 209 192 182
0.2531299889087677 -1.23681342601776123 4.38333225250244141 173 131 115
-3.13879561424255371 -0.341565698385238647 2.95530200004577637 118 63 46
-3.9984283447265625 -0.650160312652587891 4.59374427795410156 138 105 90
-2.41466188430786133 -0.57924199104309082 3.71982192993164062 165 133 118
0.17856287956237793 -1.01039350032806396 3.84512853622436523 183 142 124
0.460715055465698242 -0.591211557388305664 4.66573095321655273 104 52 39
0.605336487293243408 -0.600515365600585938 4.58688497543334961 118 75 66
-1.65293657779693604 -0.420133501291275024 4.12579727172851562 197 170 153
-3.51798009872436523 -0.614112734794616699 4.05268764495849609 144 95 79
-3.20801115036010742 0.27895432710647583 4.47095918655395508 138 87 76
-1.57458734512329102 -0.620140433311462402 4.59236288070678711 158 111 97
6.04335117340087891 -0.922924995422363281 4.85825109481811523 188 169 162
0.393263250589370728 -0.640167713165283203 4.41517019271850586 120 79 65
-2.10996007919311523 -0.783519625663757324 4.6035308837890625 185 170 159
-2.76215124130249023 0.212755173444747925 4.14213132858276367 165 131 125
-1.9355616569519043 -0.453754633665084839 3.8574981689453125 110 77 63
-2.39437580108642578 -0.416699886322021484 3.24303317070007324 114 76 55
-2.0717461109161377 -0.169339179992675781 3.47976279258728027 106 64 57
-0.413630396127700806 -0.784209549427032471 4.76986503601074219 109 60 43
-1.62032675743103027 -0.114642634987831116 4.16777276992797852 104 60 51
1.43020498752593994 0.355514675378799438 4.87764930725097656 201 187 174
-0.150651291012763977 -1.22440803050994873 4.67259740829467773 120 79 61
0.727457165718078613 -0.728601992130279541 4.07738494873046875 80 53 38
-7.73173189163208008 0.0175441615283489227 4.87737941741943359 204 195 185
-2.62743210792541504 -0.099330119788646698 3.04606962203979492 160 111 97
-3.16055583953857422 0.149768680334091187 3.99873042106628418 101 51 40
-2.46779608726501465 0.142925649881362915 3.96707415580749512 160 132 120
-2.1392207145690918 0.0296425241976976395 3.81071066856384277 127 79 67
0.61797720193862915 -0.873971283435821533 3.53225088119506836 120 74 59
-2.16490626335144043 -0.661140501499176025 4.16552352905273438 104 65 55
-1.08067429065704346 -0.33368384838104248 4.81519317626953125 116 88 77
-2.991973876953125 0.25147402286529541 4.31147384643554688 167 123 114
-3.65472674369812012 -0.33782467246055603 3.60712480545043945 179 131 108
-1.75261318683624268 -0.360316932201385498 3.91718554496765137 110 76 61
-2.96257758140563965 0.229378461837768555 4.19368505477905273 89 52 36
-3.30091309547424316 -0.522637486457824707 3.6132652759552002 107 54 40
-2.60779905319213867 0.232099816203117371 4.24639892578125 72 34 25
-8.11653900146484375 -1.73602819442749023 4.88514804840087891 206 194 182
0.493499785661697388 -0.600038111209869385 4.81144428253173828 92 40 27
-3.33862900733947754 0.269491761922836304 4.47455978393554688 108 61 45
-0.0389523543417453766 -0.633396446704864502 4.69759416580200195 141 84 67
-1.86918091773986816 -0.0310433413833379745 3.95286703109741211 143 116 104
-2.24766230583190918 -0.714248359203338623 4.28492021560668945 157 114 105
1.29034590721130371 -0.737265050411224365 4.48241567611694336 79 47 34
-2.3681786060333252 -0.203561305999755859 3.05005812644958496 115 68 62
-2.60642170906066895 0.297552347183227539 4.42235088348388672 94 55 46
0.766410231590270996 -0.91013413667678833 3.51841425895690918 154 109 90
-0.205316677689552307 -0.715689718723297119 4.64170360565185547 170 130 111
1.24983429908752441 -0.75687253475189209 4.37532329559326172 140 103 94
-1.36312472820281982 -0.202807962894439697 4.42115116119384766 115 71 58
0.827086567878723145 -0.661926805973052979 4.35624837875366211 137 86 78
0.630156040191650391 -0.62519991397857666 4.44852018356323242 104 74 64
0.0858679860830307007 -0.84664154052734375 4.03396034240722656 117 66 47
0.83020627498626709 -0.808116316795349121 3.83180999755859375 118 69 54
-3.88573360443115234 0.113281100988388062 4.38529300689697266 111 68 54
1.63500189781188965 -0.842039048671722412 4.7042689323425293 71 41 36
-3.9253544807434082 -0.634128570556640625 4.49395513534545898 177 130 109
-1.81478345394134521 -0.797430276870727539 4.84101533889770508 148 122 105
0.00900462642312049866 -0.722603440284729004 4.41474056243896484 130 79 61
-1.69387686252593994 -0.334667891263961792 3.97211861610412598 120 91 73
-1.53136098384857178 0.0208023432642221451 4.44751310348510742 97 63 53
-2.46873235702514648 0.111790195107460022 3.85071015357971191 75 52 42
-2.1983640193939209 -0.510019659996032715 3.69301915168762207 152 116 108
-3.11088395118713379 -0.808680713176727295 4.51505851745605469 170 127 112
-2.44091200828552246 0.227840214967727661 4.26921939849853516 138 105 98
-10.4993839263916016 -0.0363343805074691772 4.88556766510009766 203 193 183
-2.31854701042175293 0.280416280031204224 4.51039266586303711 96 63 56
-0.0211716033518314362 -0.895888090133666992 4.06923198699951172 139 82 68
-1.8835221529006958 0.229895263910293579 4.62564754486083984 95 72 64
-0.0209045745432376862 -0.894790709018707275 4.06296968460083008 139 82 68
-3.85516548156738281 -0.728857040405273438 4.68993091583251953 177 118 104
1.19580948352813721 -0.609267055988311768 4.74043369293212891 127 99 85
-0.103187106549739838 -1.26653075218200684 4.74185276031494141 167 118 100
-0.454301953315734863 -0.929587125778198242 4.71155357360839844 141 104 93
-2.81278705596923828 -0.474238067865371704 3.21735787391662598 175 144 126
-0.411017447710037231 -0.851082503795623779 4.61486387252807617 150 104 88
-2.62827086448669434 0.264549046754837036 4.35494375228881836 195 157 146
-2.36992597579956055 0.171281605958938599 4.10551309585571289 122 82 73
-1.52718102931976318 -0.033475879579782486 4.37058591842651367 182 152 141
1.04049372673034668 -0.576813042163848877 4.77212810516357422 64 41 31
1.03292202949523926 -0.868694841861724854 3.91194915771484375 110 62 50
-8.55060482025146484 -1.79863309860229492 4.87022733688354492 204 195 188
-0.0193960908800363541 -0.871061086654663086 4.10447549819946289 106 54 38
-8.10956096649169922 -1.73501145839691162 4.87971735000610352 206 194 182
1.66843700408935547 -0.969951629638671875 4.72930145263671875 98 50 42
-2.64928436279296875 0.105208232998847961 3.75868415832519531 114 86 77
1.26499927043914795 -0.99059903621673584 4.16225099563598633 142 94 84
-4.04149532318115234 0.117358200252056122 4.60134649276733398 178 125 109
-2.7297053337097168 -0.157747954130172729 2.79157280921936035 125 76 61
-3.38893508911132812 -0.468086063861846924 3.54306745529174805 114 55 41
-2.2438509464263916 0.0494831837713718414 3.77424335479736328 124 76 64
-3.41622376441955566 -0.531786739826202393 3.73171806335449219 113 56 41
-2.2781071662902832 0.0588724687695503235 3.78160953521728516 102 61 50
-4.76652288436889648 1.30494534969329834 4.87977218627929688 207 197 187
-2.14303302764892578 0.119840823113918304 4.06342315673828125 89 53 41
-1.64714217185974121 0.211600631475448608 4.77427339553833008 102 70 62
-2.94248771667480469 -0.512499332427978516 3.40554356575012207 166 131 117
-3.05210614204406738 0.195320770144462585 4.10657501220703125 160 123 114
-3.33350968360900879 -0.431009680032730103 3.38902091979980469 156 107 92
0.226165100932121277 -1.18202435970306396 4.22760438919067383 168 126 110
0.233052581548690796 1.64730286598205566 4.8794407844543457 209 194 187
-7.86423110961914062 0.823545932769775391 4.87974977493286133 207 194 185
-2.49723052978515625 -0.0181570816785097122 3.37789297103881836 106 59 41
-2.18177080154418945 0.129655659198760986 4.08359527587890625 114 77 68
0.180448099970817566 -1.20698153972625732 4.32458209991455078 99 52 38
0.990553021430969238 -0.724677920341491699 4.19782018661499023 157 111 96
-3.11146378517150879 -0.0561590790748596191 3.24464273452758789 136 82 67
-2.99119925498962402 -0.409093976020812988 3.03467440605163574 148 110 91
-3.65814399719238281 -0.0963287279009819031 3.66967654228210449 103 54 39
-2.78257036209106445 0.0487419851124286652 3.52906322479248047 120 88 77
-2.3489692211151123 -0.28744170069694519 3.06322765350341797 163 128 111
-10.0484018325805664 -1.87239480018615723 4.9969940185546875 189 172 162
-2.28902029991149902 0.133120208978652954 4.01151037216186523 98 62 55
-1.64127588272094727 -0.249670416116714478 3.99015974998474121 109 60 55
-2.18331241607666016 -0.0120823942124843597 3.70609807968139648 128 90 74
4.02165889739990234 -0.243008553981781006 4.87869548797607422 209 196 188
1.41702067852020264 -0.865921139717102051 4.41565322875976562 114 74 66
-2.34774065017700195 -0.286648213863372803 3.06594443321228027 163 128 111
1.02629029750823975 -0.897071480751037598 3.8798515796661377 140 92 80
-5.55162858963012695 -0.158142894506454468 4.87782382965087891 206 197 189
1.16975212097167969 -0.746088504791259766 4.34877252578735352 149 113 96
-2.50873398780822754 0.306403517723083496 4.53078889846801758 88 55 50
2.86301922798156738 0.316764533519744873 4.885467529296875 201 188 179
1.65276801586151123 -0.783497869968414307 4.80935811996459961 145 120 113
-0.201688811182975769 -0.632560789585113525 4.87603855133056641 141 106 91
-2.43750214576721191 -0.338152617216110229 3.00293421745300293 99 71 62
-1.90392434597015381 -0.460830539464950562 3.90521955490112305 120 88 77
-2.37961220741271973 -0.515102088451385498 3.62192058563232422 129 76 65
0.907342791557312012 -0.543583810329437256 4.85998201370239258 127 97 87
-0.307944804430007935 -0.935813665390014648 4.48847007751464844 156 99 82
0.575758755207061768 -0.542486190795898438 4.79553794860839844 85 37 25
-1.79293572902679443 -0.768307805061340332 4.7791285514831543 203 172 154
-2.87948894500732422 0.0905806645750999451 3.69818210601806641 184 146 136
-2.22157096862792969 0.0171799678355455399 3.70406508445739746 111 61 50
-0.32544398307800293 -0.692312419414520264 4.83286523818969727 110 68 57
-4.31447124481201172 -0.393240153789520264 4.62510395050048828 147 93 72
-2.94295430183410645 -0.176203072071075439 4.61787891387939453 115 69 61
-3.03749966621398926 -0.707365870475769043 4.12122917175292969 121 78 71
4.29938888549804688 1.87150919437408447 4.88035392761230469 180 156 144
-3.09112262725830078 0.00898327678442001343 3.43678402900695801 101 55 40
3.52953028678894043 2.08776497840881348 4.88064670562744141 201 191 179
0.0406296327710151672 -0.836947023868560791 4.04316234588623047 121 63 49
-3.92007088661193848 1.94951164722442627 4.86538791656494141 208 198 188
-0.2718009352684021 -1.22665023803710938 4.81598377227783203 154 109 91
0.500525176525115967 -0.772763252258300781 3.91013598442077637 119 68 54
-2.75186944007873535 -0.87635117769241333 4.7197422981262207 117 82 62
0.444258213043212891 -0.819530308246612549 3.76376557350158691 146 102 85
-2.72263669967651367 -0.247916042804718018 2.55019927024841309 189 160 146
0.00929155480116605759 -0.967994451522827148 4.03489828109741211 141 92 78
-5.12771177291870117 1.57390713691711426 4.91457033157348633 208 195 187
2.27807497978210449 1.83684515953063965 4.87887954711914062 209 194 182
-2.33093905448913574 -0.516962110996246338 3.59836411476135254 103 55 41
-3.48435282707214355 -0.440872639417648315 3.57437419891357422 194 151 135
-3.92197060585021973 -0.733493208885192871 4.75012683868408203 135 77 65
3.3656623363494873 1.90968561172485352 4.88017129898071289 208 194 183
5.52655649185180664 1.18917322158813477 4.88141870498657227 205 195 185
-2.55958342552185059 -0.199542686343193054 2.80322051048278809 187 158 144
-4.25248575210571289 -0.472283869981765747 4.56157922744750977 171 132 115
-3.27339267730712891 -0.794906318187713623 4.50814151763916016 178 144 138
-2.77376031875610352 -0.29134833812713623 2.58459615707397461 108 59 43
-2.18466997146606445 -0.225701466202735901 3.2708437442779541 114 76 64
-1.60409832000732422 -0.401060760021209717 4.17628049850463867 134 103 82
0.36204943060874939 -0.930296897888183594 3.54482102394104004 165 127 116
-2.69136548042297363 -0.119297266006469727 2.93565821647644043 105 51 39
-1.7561042308807373 -0.365837514400482178 3.9371037483215332 113 75 62
-2.43315625190734863 0.195425942540168762 4.06655454635620117 98 53 42
0.10387197881937027 -1.22198796272277832 4.41034984588623047 108 56 42
-2.96427702903747559 -0.644735217094421387 3.88524961471557617 177 147 137
-1.51806938648223877 -0.186048761010169983 4.18808078765869141 110 56 47
4.21816444396972656 1.91345417499542236 4.87658882141113281 201 187 174
-3.66438102722167969 -0.00250810151919722557 3.92116355895996094 169 123 108
-2.79110574722290039 1.37720572948455811 4.94953107833862305 206 198 194
4.43564605712890625 1.32677972316741943 4.87781047821044922 209 196 187
-2.18127036094665527 -0.294501721858978271 3.29555654525756836 115 62 50
6.7242584228515625 1.31206309795379639 4.8829960823059082 202 190 176
-2.0131375789642334 0.00962866935878992081 3.86691522598266602 103 66 58
4.86322402954101562 1.30508434772491455 4.87903070449829102 205 194 181
-0.939893841743469238 1.59260737895965576 4.87672996520996094 186 173 165
6.7242584228515625 1.31206309795379639 4.8829960823059082 202 190 176
-3.79425954818725586 -0.0253412313759326935 4.06469631195068359 144 97 82
7.13200950622558594 1.20707571506500244 4.87414455413818359 206 193 183
-2.34266471862792969 -0.559685230255126953 3.72178173065185547 158 122 108
0.122012123465538025 -0.773874163627624512 4.14025020599365234 122 65 48
6.8702702522277832 1.72818124294281006 4.88739633560180664 204 190 181
0.122012123465538025 -0.773874163627624512 4.14025020599365234 122 65 48
-2.82294893264770508 0.15834459662437439 3.96755266189575195 88 41 31
7.13200950622558594 1.20707571506500244 4.87414455413818359 206 193 183
-3.41349887847900391 -0.593087852001190186 3.91684722900390625 124 67 52
-1.10094797611236572 -0.15124531090259552 4.80869388580322266 108 65 49
-6.10298347473144531 1.53334224224090576 4.87882614135742188 206 196 187
4.26183748245239258 2.17066311836242676 4.88051462173461914 185 161 148
3.47202444076538086 1.35352194309234619 4.87769126892089844 205 193 179
-2.58742713928222656 0.164630264043807983 3.99362277984619141 85 48 39
-3.02113938331604004 -0.687120020389556885 4.09885263442993164 112 72 64
-3.01331591606140137 -0.540421366691589355 3.50679421424865723 183 151 140
-2.53952836990356445 -0.218621760606765747 2.82236790657043457 108 64 51
-6.5101776123046875 1.5553135871887207 4.87574005126953125 206 196 187
-0.602131545543670654 0.822500705718994141 4.86302471160888672 205 195 186
4.78734302520751953 1.22265625 4.87744474411010742 203 190 179
-1.46177184581756592 -0.255226731300354004 4.35460805892944336 101 54 41
-2.1265418529510498 -0.272033393383026123 3.35632514953613281 123 79 66
-5.36242771148681641 1.23916661739349365 4.88104152679443359 188 171 163
-2.29842948913574219 -0.244615510106086731 3.10419726371765137 111 67 54
-7.24836874008178711 0.98174053430557251 4.87759685516357422 206 198 188
5.17238759994506836 -1.26553153991699219 4.84492301940917969 204 193 182
-1.99502646923065186 -0.307300418615341187 3.54859471321105957 107 64 57
-2.98336315155029297 -0.513837337493896484 3.41495418548583984 131 98 81
-2.49778389930725098 0.179256781935691833 4.05948591232299805 128 89 76
0.3228263258934021 -0.744407057762145996 4.04496955871582031 112 54 40
-0.560469746589660645 -0.94794166088104248 4.82746553421020508 196 165 155
5.17238759994506836 -1.26553153991699219 4.84492301940917969 204 193 182
0.122150585055351257 -0.854223370552062988 3.99510073661804199 134 87 69
-3.79059481620788574 0.226828575134277344 4.648956298828125 129 79 61
-1.74784576892852783 -0.757984817028045654 4.78153467178344727 141 107 95
-2.39909720420837402 -0.30541267991065979 3.00235104560852051 103 65 52
0.483270019292831421 -1.13392364978790283 3.90370082855224609 156 121 101
-1.49615097045898438 0.0712644308805465698 4.58644580841064453 75 48 41
-3.1304013729095459 -0.439949125051498413 3.27679204940795898 120 71 56
-3.21991777420043945 0.225944787263870239 4.29286527633666992 89 48 40
-1.51684296131134033 0.195701837539672852 4.82826614379882812 82 49 42
0.135557860136032104 -1.0948103666305542 4.05721712112426758 167 135 118
0.764730334281921387 -0.739931821823120117 4.01613664627075195 190 169 154
-3.26238608360290527 -0.486561834812164307 3.47497153282165527 166 123 106
-3.18133902549743652 -0.468146383762359619 3.32113385200500488 142 96 81
-2.07397723197937012 -0.490362495183944702 3.76669573783874512 106 63 56
-3.19837069511413574 -0.150097429752349854 3.09945535659790039 105 65 48
-1.56371855735778809 -0.570507943630218506 4.49543094635009766 145 102 85
0.348601818084716797 -0.851457178592681885 3.73858428001403809 196 163 145
-1.6505587100982666 -0.630280852317810059 4.53951120376586914 94 48 32
0.333848059177398682 -1.05087161064147949 3.75720763206481934 149 98 77
1.00171637535095215 -0.805482923984527588 4.01142120361328125 114 68 52
-9.88170051574707031 -0.43805578351020813 4.87909793853759766 206 193 185
-3.88430404663085938 -0.514750421047210693 4.22051334381103516 180 156 136
-3.90887880325317383 -0.36165127158164978 3.94526815414428711 149 86 67
-1.98645853996276855 0.213605120778083801 4.49872541427612305 64 43 36
0.764740586280822754 -0.616545259952545166 4.50445127487182617 131 108 100
