ply
format ascii 1.0
element vertex 653
property float x
property float y
property float z
property uchar red
property uchar green
property uchar blue
end_header
-5.06522035598754883 -4.23754596710205078 38.4161224365234375 152 159 163
-4.94002580642700195 -4.6480402946472168 38.3911819458007812 148 183 200
-4.37195777893066406 -4.13881969451904297 38.532928466796875 105 99 111
-4.09921741485595703 -5.48998689651489258 38.3289718627929688 150 136 123
-4.97323417663574219 -4.39104413986206055 38.4094581604003906 203 225 238
-5.70027351379394531 -5.11093997955322266 38.17132568359375 149 137 123
-7.13552236557006836 -5.1019892692565918 37.9639053344726562 166 153 137
-4.92203807830810547 -4.5292201042175293 38.3813858032226562 126 158 174
-6.86332130432128906 -2.51339268684387207 38.5497283935546875 179 167 151
-4.92412233352661133 -5.49704837799072266 38.085418701171875 85 104 120
-6.90998268127441406 -4.7831120491027832 38.0258674621582031 146 131 108
-4.03242826461791992 -3.4214179515838623 38.6855239868164062 151 137 128
-4.71703720092773438 -5.23702764511108398 38.2616996765136719 146 133 114
-4.22201013565063477 -3.95979118347167969 38.5824508666992188 138 124 111
-4.89158964157104492 -5.54491806030273438 38.0996589660644531 111 119 123
-4.9183197021484375 -4.45824432373046875 38.4054374694824219 124 145 164
-4.85390949249267578 -4.80939149856567383 38.3915557861328125 81 90 92
-4.34853887557983398 -4.09968471527099609 38.5347633361816406 82 92 102
-6.11272239685058594 -2.77567839622497559 38.6509437561035156 148 132 98
-4.35173988342285156 -4.0655817985534668 38.55755615234375 235 255 255
-5.30185985565185547 -2.87423348426818848 38.7043342590332031 165 151 137
-5.90607213973999023 -4.54519462585449219 38.2869720458984375 146 132 105
-5.49908781051635742 -5.67755460739135742 37.8737602233886719 169 187 207
-4.89219379425048828 -4.7871246337890625 38.3602828979492188 212 234 236
-5.07507514953613281 -4.47879695892333984 38.3800811767578125 247 253 255
-4.95731449127197266 -5.27454471588134766 37.97930908203125 64 67 58
-7.0102381706237793 -4.34237480163574219 38.1846733093261719 173 164 147
-4.88918399810791016 -4.50582265853881836 38.3981666564941406 123 146 162
-6.18181419372558594 -4.32285118103027344 38.3049163818359375 158 151 133
-4.47013235092163086 -3.90009570121765137 38.547454833984375 147 174 183
-4.84434795379638672 -3.90777206420898438 38.4247703552246094 168 186 195
-4.628143310546875 -3.64350366592407227 38.5625724792480469 177 206 216
-4.39972400665283203 -3.43884086608886719 38.6701164245605469 152 146 132
-4.57160806655883789 -5.75335264205932617 38.20721435546875 147 138 123
-4.91634511947631836 -5.45899677276611328 38.0750961303710938 206 204 211
-4.79839706420898438 -4.66752338409423828 38.3814582824707031 117 138 159
-4.91921663284301758 -5.39134693145751953 38.1588249206542969 97 88 73
-4.82590913772583008 -2.98453092575073242 38.7335014343261719 157 145 124
-5.14259815216064453 -4.42509555816650391 38.3792572021484375 78 81 84
-6.51515674591064453 -3.17152237892150879 38.5944252014160156 173 161 137
-4.54253578186035156 -3.89328503608703613 38.5562019348144531 132 158 168
-7.19860219955444336 -4.52425193786621094 38.0506439208984375 176 162 149
-4.4561614990234375 -3.45281863212585449 38.6435089111328125 144 131 114
-5.21332502365112305 -4.93652963638305664 38.2945899963378906 141 124 108
-6.47347593307495117 -3.67898106575012207 38.3948402404785156 148 133 102
-4.88630819320678711 -4.85597419738769531 38.3514213562011719 72 60 56
-4.80562400817871094 -4.76192855834960938 38.3818931579589844 110 99 86
-7.00360345840454102 -5.06808614730834961 37.97491455078125 160 152 141
-5.32444047927856445 -3.20205521583557129 38.63934326171875 159 149 131
-5.00600290298461914 -4.44118213653564453 38.4134712219238281 141 172 187
-4.38241815567016602 -4.10444402694702148 38.5307464599609375 234 255 255
-5.15330076217651367 -5.36062431335449219 38.1547431945800781 119 107 81
-4.44131231307983398 -5.09992837905883789 38.43438720703125 149 137 123
-4.96690082550048828 -3.29759907722473145 38.6595535278320312 160 150 138
-4.59622478485107422 -3.56988191604614258 38.6256141662597656 175 189 200
-6.72986507415771484 -5.22404623031616211 37.9313087463378906 159 152 137
-4.72819662094116211 -3.70632624626159668 38.5938835144042969 116 104 93
-4.21921730041503906 -5.10131072998046875 38.3672599792480469 151 137 128
-4.63744211196899414 -4.57304239273071289 38.4300079345703125 113 92 71
-4.36816549301147461 -3.48841524124145508 38.6834449768066406 131 111 87
-5.39633941650390625 -3.80049443244934082 38.5043144226074219 162 146 130
-5.47793960571289062 -3.29871010780334473 38.6027908325195312 172 159 143
-5.46333885192871094 -3.15870881080627441 38.6442413330078125 164 151 132
-6.19910383224487305 -5.56943750381469727 37.9838294982910156 150 138 126
-6.35304594039916992 -2.8967747688293457 38.6023674011230469 173 164 149
-4.58330011367797852 -2.88338446617126465 38.7583961486816406 153 144 129
-4.35613346099853516 -4.03321313858032227 38.5515975952148438 152 179 201
-5.58370447158813477 -4.5257258415222168 38.3046798706054688 99 93 85
-5.63291597366333008 -5.7307276725769043 38.0655784606933594 118 104 84
-4.51507329940795898 -5.81323146820068359 38.2190361022949219 156 145 132
-5.76539897918701172 -5.2105860710144043 38.1353988647460938 150 137 128
-5.93773412704467773 -5.12576055526733398 38.1363792419433594 147 144 129
-6.79732942581176758 -3.37087798118591309 38.4103660583496094 174 158 142
-6.47849178314208984 -3.42986106872558594 38.437652587890625 159 141 117
-6.0007023811340332 -3.18303227424621582 38.5710525512695312 168 152 133
-4.07979202270507812 -4.09233999252319336 38.5854530334472656 131 108 90
-5.10312986373901367 -3.92730116844177246 38.516265869140625 126 102 74
-5.23877382278442383 -5.8510432243347168 37.9523239135742188 38 54 77
-4.18425130844116211 -2.71822857856750488 38.8095817565917969 159 144 121
-5.25209760665893555 -3.76675677299499512 38.5370712280273438 153 142 124
-6.10893964767456055 -3.63483738899230957 38.4533805847167969 147 123 95
-4.99607038497924805 -4.52646636962890625 38.3770751953125 163 181 192
-6.10874366760253906 -2.77649950981140137 38.6392402648925781 153 129 101
-4.44131231307983398 -5.09992837905883789 38.43438720703125 149 137 123
-4.89376640319824219 -3.84557080268859863 38.5360183715820312 115 94 65
-5.10578584671020508 -5.31954145431518555 38.118194580078125 85 86 73
-3.78197836875915527 -4.64228582382202148 38.5314826965332031 148 135 118
-4.84059715270996094 -4.08326196670532227 24.0019989013671875 0 0 0
-4.40918159484863281 -5.30858993530273438 38.3165855407714844 146 138 125
-6.21437263488769531 -2.84664797782897949 38.6184120178222656 163 154 139
-6.60011434555053711 -4.34747934341430664 38.2045173645019531 162 152 142
-5.23211050033569336 -5.38028621673583984 36.640533447265625 177 190 202
-4.51011180877685547 -3.93220806121826172 38.510406494140625 133 160 174
-5.04747295379638672 -5.74930047988891602 38.0165328979492188 83 88 92
-4.88595390319824219 -5.50392627716064453 38.0530281066894531 48 55 46
-7.37246417999267578 -3.68000459671020508 38.2246780395507812 174 160 147
-5.06472921371459961 -5.28227853775024414 38.2019004821777344 60 48 31
-4.88720417022705078 -4.71904468536376953 38.3532752990722656 139 165 178
-5.12485218048095703 -5.78287839889526367 37.9825210571289062 67 72 86
-4.25576496124267578 -3.13795661926269531 38.7916259765625 132 118 91
-5.0386347770690918 -5.68382453918457031 38.0154876708984375 126 144 171
-6.94947052001953125 -4.63594722747802734 38.0890769958496094 147 132 111
-4.97931241989135742 -5.70463943481445312 38.0588798522949219 85 81 83
-5.08467006683349609 -5.31443309783935547 38.0909843444824219 254 255 251
-4.98640823364257812 -5.26777744293212891 38.1096343994140625 201 205 197
-5.20106601715087891 -5.54796409606933594 38.0380592346191406 229 255 255
-4.95860862731933594 -5.34108829498291016 38.1184959411621094 217 218 212
-4.91372346878051758 -4.48873329162597656 38.4024543762207031 241 255 255
-4.88190507888793945 -3.9372706413269043 38.5734214782714844 117 118 126
-4.5377202033996582 -3.57962560653686523 38.6072502136230469 223 229 221
-6.56349325180053711 -4.87324142456054688 38.0776481628417969 165 155 143
-4.81491470336914062 -4.76036405563354492 38.3420028686523438 100 100 98
-4.82212591171264648 -4.7208704948425293 38.3681640625 143 159 172
-4.53000211715698242 -3.69360804557800293 38.5700035095214844 221 250 254
-5.05675935745239258 -5.70458841323852539 38.0152626037597656 76 92 118
-4.94386148452758789 -5.5548858642578125 38.0777702331542969 128 147 171
-4.96295309066772461 -4.45626354217529297 38.3897438049316406 108 140 154
-5.20972728729248047 -5.79048776626586914 37.9495353698730469 127 153 180
-5.11762666702270508 -5.82904958724975586 37.9221343994140625 69 60 51
-4.93148469924926758 -4.64664745330810547 38.3777389526367188 154 182 203
-5.0493016242980957 -4.44172000885009766 38.393463134765625 149 181 194
-5.03524684906005859 -4.25277376174926758 38.41558837890625 122 138 162
-4.86200237274169922 -4.77286720275878906 38.3672256469726562 145 170 194
-4.51524066925048828 -3.70522642135620117 38.5784378051757812 107 140 164
-4.91912603378295898 -4.79778909683227539 38.3256149291992188 86 84 76
-5.03877115249633789 -4.48178625106811523 38.3780937194824219 158 188 196
-4.51813364028930664 -3.74320864677429199 38.5615653991699219 221 240 247
-5.02069759368896484 -4.51008272171020508 38.3754348754882812 206 231 231
-5.68718051910400391 -5.71987056732177734 38.0255203247070312 138 124 111
-5.60850286483764648 -5.11705684661865234 38.1895523071289062 145 131 120
-5.31283283233642578 -4.89643383026123047 38.2800712585449219 147 130 114
-5.59729957580566406 -4.87721347808837891 38.2536239624023438 153 139 123
-5.58539485931396484 -4.52795028686523438 38.314361572265625 165 156 142
-6.03188943862915039 -5.30659627914428711 38.02227783203125 139 117 97
-5.11331033706665039 -4.47555351257324219 38.3707275390625 83 75 82
-5.62338113784790039 -3.77166199684143066 38.4924125671386719 166 152 133
-6.51754331588745117 -3.5147705078125 38.4141387939453125 173 160 144
-6.24915981292724609 -5.04058980941772461 38.1120452880859375 162 152 140
-5.90802335739135742 -3.15594673156738281 38.5668907165527344 173 157 142
-6.51704740524291992 -4.5569767951965332 38.174163818359375 176 164 150
-6.81613969802856445 -5.05604887008666992 38.1585121154785156 164 154 144
-6.05587387084960938 -4.33159208297729492 38.2933082580566406 168 156 140
-6.01213169097900391 -4.38794469833374023 38.2921104431152344 145 132 113
-5.244476318359375 -4.18361234664916992 38.4377250671386719 152 137 118
-4.99155759811401367 -3.46564245223999023 38.6188468933105469 164 152 138
-5.04619741439819336 -3.08386611938476562 38.6781044006347656 164 151 135
-5.6336359977722168 -6.08828067779541016 37.8554878234863281 169 200 229
-5.61714982986450195 -2.97856736183166504 38.6526069641113281 171 165 153
-4.4017949104309082 -4.12830781936645508 38.5177688598632812 131 142 155
-6.22239923477172852 -2.73392820358276367 38.6488151550292969 156 142 115
-6.74512577056884766 -4.34188985824584961 38.184417724609375 171 161 149
-5.06745195388793945 -5.74733304977416992 38.007568359375 11 12 29
-5.84718132019042969 -4.46267986297607422 38.3003921508789062 165 152 136
-5.03448009490966797 -5.27433013916015625 37.9517936706542969 81 91 101
-5.26899385452270508 -3.99547219276428223 38.4569015502929688 151 138 120
-5.06162023544311523 -4.219757080078125 38.4381446838378906 102 109 114
-6.71723079681396484 -2.84441900253295898 38.5499038696289062 179 167 151
-5.42511558532714844 -2.75394463539123535 38.7193069458007812 165 154 136
-5.93900442123413086 -5.12395191192626953 38.1328887939453125 150 141 124
-6.67670965194702148 -4.22674131393432617 38.2277908325195312 154 141 120
-6.74123191833496094 -4.03665685653686523 38.2441062927246094 171 163 150
-4.09294271469116211 -2.94661998748779297 38.7742538452148438 151 143 124
-5.09360408782958984 -5.78106117248535156 37.9563102722167969 35 25 17
-4.9926609992980957 -5.28826999664306641 38.1377525329589844 88 100 111
-5.99606752395629883 -4.20385122299194336 38.3472862243652344 157 149 130
-5.25236415863037109 -3.76959991455078125 38.5478515625 156 144 128
-5.09253168106079102 -4.18805503845214844 38.4231147766113281 122 104 76
-5.02262592315673828 -5.25555038452148438 38.1310844421386719 206 203 196
-4.60862874984741211 -3.62939715385437012 38.577880859375 149 169 194
-5.60441446304321289 -3.81871342658996582 38.4763832092285156 157 140 120
-4.901458740234375 -5.5849308967590332 38.0958518981933594 138 147 143
-4.53333711624145508 -3.64732193946838379 38.5414505004882812 137 165 176
-5.06799793243408203 -5.73418474197387695 38.01837158203125 98 105 133
-5.2725682258605957 -5.85599851608276367 37.938232421875 110 130 167
-5.5558018684387207 -5.69888210296630859 38.1233634948730469 114 107 103
-5.05772495269775391 -4.52785921096801758 38.3719406127929688 204 221 227
-5.28583049774169922 -5.82520961761474609 37.5682411193847656 133 157 191
-5.13027524948120117 -5.68756008148193359 37.9774856567382812 156 187 218
-7.16456985473632812 -5.22739124298095703 37.8749771118164062 148 130 107
-4.81548595428466797 -4.75744533538818359 38.3550872802734375 84 94 96
-4.8450169563293457 -4.66597509384155273 38.3771858215332031 111 143 164
-4.99248743057250977 -5.26271486282348633 38.2213630676269531 105 100 86
-5.07419967651367188 -4.37725353240966797 38.37774658203125 172 201 209
-5.14313220977783203 -4.34517478942871094 38.383270263671875 89 93 105
-4.53327226638793945 -3.86012673377990723 38.5653305053710938 174 203 217
-4.56164789199829102 -3.54775881767272949 38.6168479919433594 228 236 229
-5.32870149612426758 -4.18909645080566406 38.384918212890625 136 118 96
-5.07245731353759766 -5.71123075485229492 37.9940414428710938 77 95 125
-4.96814537048339844 -4.61095619201660156 38.3651847839355469 228 254 255
-4.83830070495605469 -4.63250446319580078 38.3810386657714844 196 216 227
-4.70130062103271484 -5.61469078063964844 38.1881294250488281 155 151 141
-4.97630500793457031 -4.3692164421081543 38.4200859069824219 121 149 153
-3.88955545425415039 -4.62616825103759766 38.4868507385253906 153 140 123
-4.28440666198730469 -4.01336240768432617 38.5547065734863281 91 85 74
-4.51572465896606445 -3.70913052558898926 38.5929374694824219 102 130 152
-5.04094839096069336 -4.42891836166381836 38.2552452087402344 160 193 227
-5.01595830917358398 -4.39254283905029297 38.4081993103027344 106 134 172
-4.9590306282043457 -4.42841005325317383 38.4045295715332031 240 255 255
-4.61323118209838867 -5.76515865325927734 38.1791954040527344 125 108 90
-5.03243875503540039 -4.30100107192993164 38.4179191589355469 209 230 225
-5.60072231292724609 -3.666717529296875 38.5044136047363281 164 151 135
-6.15211820602416992 -5.20594882965087891 38.0835914611816406 152 146 132
-6.14755868911743164 -5.2028961181640625 38.0675277709960938 152 146 132
-6.83633279800415039 -3.87644505500793457 38.2799797058105469 177 169 166
-5.23859357833862305 -5.88095998764038086 37.9261665344238281 42 44 57
-5.61487388610839844 -3.53813695907592773 38.5266685485839844 144 130 104
-6.79551935195922852 -3.37222576141357422 38.4027023315429688 177 163 150
-5.90865755081176758 -3.15680050849914551 38.5607261657714844 173 157 142
-5.3744659423828125 -5.56030082702636719 38.0381813049316406 187 191 194
-4.65143156051635742 -5.18867683410644531 38.3088722229003906 149 134 118
-4.93972492218017578 -5.60697174072265625 38.1034584045410156 117 132 155
-6.73096132278442383 -4.88645076751708984 38.0574378967285156 165 155 143
-6.01201868057250977 -4.38758277893066406 38.2911338806152344 145 132 113
-5.78017568588256836 -3.52548050880432129 38.5017204284667969 167 154 137
-4.27915859222412109 -5.32791042327880859 38.2960014343261719 151 138 122
-5.78044843673706055 -5.05395841598510742 38.177276611328125 132 120 97
-5.95792007446289062 -4.63813495635986328 38.2463455200195312 165 155 139
-5.70593452453613281 -4.37006330490112305 38.3370132446289062 141 114 93
-5.33588218688964844 -4.41770315170288086 38.3829727172851562 133 121 95
-5.33588218688964844 -4.41770315170288086 38.3829727172851562 133 121 95
-4.03292274475097656 -4.23903608322143555 38.5681610107421875 152 138 125
-5.82168817520141602 -3.84867668151855469 38.4565696716308594 164 149 128
-6.80389213562011719 -3.96908068656921387 38.2784309387207031 155 143 117
-5.82094001770019531 -3.84951186180114746 38.4572372436523438 162 149 132
-5.81997966766357422 -3.8501889705657959 38.4543342590332031 162 149 132
-5.80526828765869141 -3.43688344955444336 38.5633201599121094 148 133 112
-5.40120267868041992 -5.56903171539306641 37.9975547790527344 99 95 87
-5.80515193939208984 -3.43711256980895996 38.5630378723144531 148 133 112
-5.89153194427490234 -4.32154417037963867 38.3388938903808594 144 125 100
-6.49269390106201172 -3.92641067504882812 38.3239402770996094 154 137 121
-7.18325901031494141 -4.58264398574829102 38.0650405883789062 170 158 144
-4.98759603500366211 -3.67342734336853027 38.5770912170410156 145 133 109
-5.80681562423706055 -2.60942864418029785 38.7130317687988281 149 132 104
-4.06759357452392578 -3.64944934844970703 38.662841796875 150 137 121
-7.12021255493164062 -3.8624880313873291 38.2751922607421875 175 164 148
-6.68353986740112305 -4.61523675918579102 38.15594482421875 145 128 110
-6.68355083465576172 -4.61528921127319336 38.1548919677734375 145 128 110
-4.99469232559204102 -5.21543264389038086 38.0887184143066406 110 97 74
-4.9891200065612793 -4.40982723236083984 38.3841285705566406 143 169 183
-7.18295717239379883 -3.95286655426025391 38.2527732849121094 156 140 117
-5.30201196670532227 -5.89481544494628906 38.6832962036132812 139 156 181
-5.02225065231323242 -5.25583505630493164 38.1285743713378906 218 222 205
-4.96468830108642578 -4.59641265869140625 38.3879776000976562 152 179 186
-4.84647226333618164 -4.77269744873046875 38.3585968017578125 175 185 191
-5.42705535888671875 -5.59067010879516602 37.9876899719238281 102 94 85
-3.10906815528869629 -3.36217570304870605 28.1540031433105469 155 173 181
-5.03894758224487305 -4.32490921020507812 38.4096488952636719 144 173 179
-4.02851057052612305 -5.38027238845825195 38.3636703491210938 153 141 129
-4.31498193740844727 -3.90136909484863281 38.6185569763183594 120 109 88
-6.40865373611450195 -3.54374504089355469 38.4794082641601562 172 161 145
-4.42386102676391602 -5.64671182632446289 38.235626220703125 132 110 87
-4.38636350631713867 -3.86292743682861328 38.5707855224609375 131 139 139
-5.13435792922973633 -5.7541508674621582 37.9877967834472656 67 85 115
-5.20166349411010742 -5.38294649124145508 37.7468795776367188 92 100 107
-4.97929954528808594 -4.61275386810302734 38.3490257263183594 168 192 202
-3.90686130523681641 -3.36931848526000977 38.7154960632324219 150 143 127
-4.9550628662109375 -4.45888710021972656 38.3957290649414062 133 160 176
-4.94315195083618164 -4.41715431213378906 38.4055633544921875 136 148 162
-4.83467912673950195 -4.75924062728881836 38.3723831176757812 163 176 184
-7.06027936935424805 -5.10433006286621094 37.9095191955566406 146 131 110
-5.08632087707519531 -4.30340814590454102 38.4111213684082031 148 174 197
-5.01256322860717773 -4.60151815414428711 38.3724861145019531 185 208 220
-7.35679769515991211 -3.30146956443786621 38.35797119140625 159 141 120
-5.14873647689819336 -4.34064149856567383 38.4046363830566406 91 99 107
-4.93700599670410156 -5.61862039566040039 38.0579071044921875 195 206 228
-4.74005270004272461 -3.75073647499084473 38.5178871154785156 122 123 127
-5.08994007110595703 -5.72286558151245117 38.0201263427734375 75 91 120
-5.04339742660522461 -4.40418291091918945 38.3181571960449219 182 210 226
-5.01821756362915039 -4.51052999496459961 38.3636665344238281 203 229 230
-4.4136357307434082 -3.90508317947387695 38.5831451416015625 147 173 182
-6.91759490966796875 -4.86659622192382812 38.0212059020996094 164 162 147
-5.60891962051391602 -5.11895370483398438 38.1889495849609375 141 132 117
-5.32910633087158203 -5.16136550903320312 38.2118988037109375 138 126 113
-6.42759466171264648 -3.81779694557189941 38.3496284484863281 174 160 147
-6.8438720703125 -3.78192472457885742 38.3016128540039062 172 160 144
-6.42759466171264648 -3.81779694557189941 38.3496284484863281 174 160 147
-6.86914443969726562 -3.01342916488647461 38.4779434204101562 173 157 140
-4.56320619583129883 -3.56737971305847168 38.6125030517578125 157 174 182
-6.6761627197265625 -4.22779130935668945 38.2252006530761719 154 141 122
-5.95982265472412109 -3.06784796714782715 38.6081314086914062 148 133 110
-4.74271535873413086 -3.60142993927001953 38.6139564514160156 127 103 75
-5.1249690055847168 -5.74835634231567383 37.9912986755371094 104 118 149
-5.08885812759399414 -5.71224069595336914 37.9909629821777344 42 54 71
-5.15490579605102539 -5.78599071502685547 38.0020408630371094 64 80 105
-4.97620248794555664 -5.27691364288330078 38.1407394409179688 77 73 62
-6.90935182571411133 -4.78280830383300781 38.0246505737304688 146 131 108
-7.17272233963012695 -5.82120609283447266 38.0526924133300781 160 152 141
-4.9834904670715332 -4.60413026809692383 38.3713645935058594 197 225 237
-4.91181421279907227 -4.62268161773681641 38.3881416320800781 147 175 189
-4.99070930480957031 -5.70171213150024414 38.0833587646484375 123 130 136
-5.25531148910522461 -5.97525501251220703 37.9192695617675781 92 83 72
-5.03935623168945312 -4.50817728042602539 38.3990020751953125 228 255 255
-5.25825834274291992 -5.89117097854614258 37.932220458984375 100 101 121
-4.93546724319458008 -4.49834346771240234 38.4022026062011719 137 163 178
-5.31789112091064453 -4.80240440368652344 38.3037643432617188 147 134 116
-5.12135028839111328 -4.35424518585205078 38.4078102111816406 117 142 149
-4.54869651794433594 -3.86314177513122559 38.5740394592285156 134 153 160
-4.37912607192993164 -3.8893587589263916 38.5773391723632812 161 185 187
-6.22441291809082031 -3.40349888801574707 38.4731483459472656 150 133 105
-7.22546100616455078 -5.57715082168579102 37.7204475402832031 163 155 142
-4.57600545883178711 -3.78895044326782227 38.5628128051757812 186 207 224
-4.53902339935302734 -3.7721867561340332 38.5661354064941406 189 210 236
-4.91225004196166992 -4.49313831329345703 38.4008674621582031 234 253 255
-4.22272348403930664 -5.85578298568725586 38.3178558349609375 145 131 116
-4.50234317779541016 -3.74395322799682617 38.6018447875976562 171 197 212
-4.98764896392822266 -5.69874477386474609 38.0538558959960938 123 130 136
-5.39895915985107422 -3.80122685432434082 38.5197296142578125 159 147 125
-4.44238758087158203 -3.73789191246032715 38.6017990112304688 173 185 181
-4.60861396789550781 -3.60583949089050293 38.5910377502441406 136 157 174
-5.52338647842407227 -5.66732549667358398 37.7646408081054688 102 102 99
-5.09292125701904297 -5.76108837127685547 38.0083503723144531 60 68 82
-4.56788063049316406 -3.61314129829406738 38.6211051940917969 158 177 181
-5.03292131423950195 -5.69856452941894531 38.0329208374023438 91 107 133
-4.92218351364135742 -4.70692634582519531 38.3625640869140625 165 193 199
-4.96386432647705078 -4.63275861740112305 38.373748779296875 172 197 214
-4.91271591186523438 -4.60563993453979492 38.3798294067382812 211 239 254
-4.90785932540893555 -4.48586654663085938 38.4128150939941406 119 138 155
-5.07087326049804688 -4.30648326873779297 38.4173507690429688 169 194 210
-5.06506729125976562 -4.23399114608764648 38.4308929443359375 153 163 165
-6.84273147583007812 -4.06385135650634766 38.2862472534179688 167 154 137
-4.42860078811645508 -3.99866366386413574 38.5452919006347656 159 188 204
-4.62475347518920898 -3.71927309036254883 38.5871391296386719 122 140 150
-4.39199447631835938 -3.84318184852600098 38.5942955017089844 137 155 155
-4.55284833908081055 -3.65307903289794922 38.608123779296875 191 225 255
-4.90915918350219727 -4.7360072135925293 38.3470954895019531 165 196 210
-6.00230884552001953 -3.18491959571838379 38.5657844543457031 168 152 133
-4.8927617073059082 -4.73435497283935547 38.3580780029296875 227 255 255
-4.85727834701538086 -4.78556346893310547 38.3331298828125 186 206 222
-4.94147348403930664 -4.62583637237548828 38.3732757568359375 233 255 255
-4.8952479362487793 -5.59139728546142578 38.0629768371582031 209 209 213
-5.05182075500488281 -4.50338268280029297 38.3767166137695312 170 190 201
-5.27702999114990234 -5.46146678924560547 37.615814208984375 177 186 196
-5.104583740234375 -4.38278865814208984 38.3844184875488281 175 197 210
-4.51252031326293945 -3.90647983551025391 38.5460014343261719 233 254 255
-7.44559955596923828 -4.34073829650878906 38.0914726257324219 169 157 135
-4.45344829559326172 -3.97255587577819824 38.56622314453125 152 182 206
-4.57667255401611328 -3.81285715103149414 38.5723152160644531 136 157 174
-4.55945014953613281 -3.712005615234375 38.5925407409667969 143 175 186
-5.05641412734985352 -5.67473602294921875 38.0597610473632812 141 168 195
-4.4053654670715332 -3.77180719375610352 38.5852279663085938 114 116 121
-4.40606069564819336 -3.8312222957611084 38.5822944641113281 185 210 216
-4.89930820465087891 -4.5370335578918457 38.4098892211914062 196 221 228
-4.98790311813354492 -4.38746547698974609 38.39129638671875 213 232 239
-6.93361139297485352 -4.44940757751464844 38.1226348876953125 174 161 141
-4.41291475296020508 -3.86026430130004883 38.5623321533203125 178 203 208
-4.40956974029541016 -4.08004093170166016 38.5380592346191406 239 250 254
-4.30228424072265625 -4.01015901565551758 38.5626678466796875 224 240 253
-5.43068838119506836 -6.07804155349731445 38.1511421203613281 24 20 26
-4.61553621292114258 -3.70085740089416504 38.5811271667480469 241 255 255
-4.56344842910766602 -3.83179426193237305 38.559844970703125 125 151 165
-6.37349700927734375 -4.29323291778564453 38.2689018249511719 161 153 142
-4.55445051193237305 -3.81737017631530762 38.56793212890625 197 223 237
-4.51462459564208984 -3.80391430854797363 38.5728836059570312 204 240 255
-4.65056228637695312 -3.6660618782043457 38.5833854675292969 101 113 127
-6.29427719116210938 -3.09940242767333984 38.5410881042480469 173 165 147
-5.22296380996704102 -5.99287652969360352 38.1651687622070312 73 57 42
-4.9326930046081543 -4.72635889053344727 38.3580551147460938 224 247 255
-4.60125207901000977 -5.74088430404663086 38.2419281005859375 147 133 118
-4.92374706268310547 -4.62065219879150391 38.3723411560058594 154 178 198
-4.92476654052734375 -4.617401123046875 38.375885009765625 154 178 198
-4.89568090438842773 -4.57768869400024414 38.3875160217285156 140 167 186
-4.87978553771972656 -4.55405092239379883 38.3927688598632812 187 214 219
-4.41213417053222656 -4.00595283508300781 38.5467300415039062 217 248 255
-4.41305255889892578 -4.00727272033691406 38.5537681579589844 217 248 255
-4.81741237640380859 -4.73644256591796875 38.3697586059570312 153 172 187
-4.59779214859008789 -3.7882387638092041 38.5882644653320312 130 150 174
-4.57132625579833984 -3.78655290603637695 38.5778923034667969 182 208 223
-4.53465652465820312 -3.79455280303955078 38.5645027160644531 156 183 210
-4.07895183563232422 -3.6550757884979248 38.6867256164550781 147 134 117
-4.50169134140014648 -3.7704932689666748 38.57330322265625 164 190 205
-4.5857396125793457 -3.74405741691589355 38.5600738525390625 198 228 229
-4.540679931640625 -3.7074897289276123 38.581512451171875 225 248 251
-4.5166168212890625 -3.7102808952331543 38.6037063598632812 125 147 182
-5.21600914001464844 -5.49395275115966797 38.0374298095703125 196 223 250
-4.56082820892333984 -3.65692687034606934 38.6028327941894531 179 215 251
-4.92746400833129883 -4.57553720474243164 38.3780326843261719 212 241 255
-4.97898960113525391 -5.25637483596801758 38.1183090209960938 71 66 52
-3.72819709777832031 -5.19530677795410156 38.4479713439941406 152 143 128
-5.03192710876464844 -4.30141305923461914 38.4223556518554688 214 240 230
-4.45908117294311523 -4.03244256973266602 38.5334510803222656 135 152 168
-4.98313999176025391 -4.56075477600097656 38.3959579467773438 190 212 232
-4.43175363540649414 -4.03780364990234375 38.5369453430175781 217 242 234
-4.38559675216674805 -3.86560893058776855 38.5758285522460938 241 255 255
-4.61878871917724609 -3.74132251739501953 38.5794219970703125 122 145 163
-6.97915887832641602 -3.72230386734008789 38.3265113830566406 170 158 146
-4.95048904418945312 -3.57286381721496582 38.578338623046875 151 139 117
-4.56626462936401367 -3.61604881286621094 38.6189804077148438 148 173 182
-6.74713468551635742 -5.20367193222045898 38.0015144348144531 159 153 139
-5.0369267463684082 -4.1490478515625 38.4653282165527344 111 99 87
-4.42596340179443359 -3.78545403480529785 38.5898780822753906 185 204 208
-4.4384303092956543 -3.88274979591369629 38.57275390625 238 255 255
-4.38732290267944336 -3.80885219573974609 38.5763740539550781 100 100 96
-6.7937169075012207 -2.89300537109375 38.5388603210449219 154 139 110
-6.93230676651000977 -4.31647872924804688 38.1746444702148438 149 137 113
-4.57660150527954102 -3.69749045372009277 38.5898590087890625 143 168 198
-3.73061156272888184 -3.53411769866943359 38.5835456848144531 148 138 126
-6.27253389358520508 -3.46696710586547852 38.474334716796875 172 159 133
-4.9757847785949707 -5.63576555252075195 38.0755844116210938 134 160 185
-4.40508604049682617 -5.38163900375366211 38.2559013366699219 148 138 126
-5.97665548324584961 -5.10990381240844727 38.1198959350585938 158 150 137
-4.59149026870727539 -5.10561800003051758 38.307830810546875 155 139 126
-5.03166484832763672 -4.55466365814208984 38.3731918334960938 237 255 255
-6.00795650482177734 -3.18805336952209473 38.5540428161621094 165 153 131
-4.59147882461547852 -5.10564899444580078 38.312591552734375 155 139 126
-4.79502058029174805 -4.72496461868286133 38.3626670837402344 94 98 93
-6.28130817413330078 -3.97335052490234375 38.3466339111328125 169 154 138
-4.43077611923217773 -3.94997715950012207 38.5344963073730469 151 182 203
-4.5109400749206543 -3.7284853458404541 38.5463943481445312 224 254 255
-4.31110715866088867 -3.94812989234924316 38.5720672607421875 106 103 100
-5.25594997406005859 -5.86499309539794922 37.9261894226074219 36 49 65
-6.95520496368408203 -2.82966470718383789 38.5438346862792969 178 166 152
-5.44851064682006836 -5.62578773498535156 37.9739875793457031 176 188 193
-5.02593851089477539 -4.29503917694091797 38.4372940063476562 118 126 127
-6.94587898254394531 -5.35380887985229492 37.8658447265625 163 151 137
-5.40902900695800781 -4.55704355239868164 38.3272781372070312 150 143 127
-5.53977108001708984 -5.43644523620605469 38.0588455200195312 136 124 110
-6.41176986694335938 -4.40218877792358398 38.2352943420410156 165 155 143
-5.0684661865234375 -5.29511594772338867 38.0796127319335938 250 252 248
-5.00950431823730469 -4.45296478271484375 38.4005355834960938 148 178 189
-6.82497739791870117 -4.12799501419067383 38.2243309020996094 151 135 109
-4.82469987869262695 -2.64123225212097168 38.7966690063476562 158 152 136
-6.90366792678833008 -3.95029902458190918 38.2930335998535156 174 158 142
-5.11189413070678711 -4.37647819519042969 38.4034156799316406 162 183 188
-5.46243429183959961 -3.16065335273742676 38.6409683227539062 164 153 140
-7.01425504684448242 -2.99997663497924805 38.5078620910644531 178 166 145
-5.02101945877075195 -4.28809928894042969 38.4461517333984375 127 148 151
-6.43423223495483398 -5.55495500564575195 37.9078941345214844 134 119 96
-7.39494180679321289 -5.17280483245849609 37.8104743957519531 168 165 158
-4.91976404190063477 -4.4954676628112793 38.3947868347167969 236 254 255
-5.07562828063964844 -4.28817987442016602 38.4115524291992188 86 108 131
-6.9281010627746582 -4.31997823715209961 38.1642608642578125 148 134 107
-5.97124195098876953 -3.59811258316040039 38.480712890625 150 125 103
-6.6896519660949707 -3.48546385765075684 38.4170150756835938 151 136 107
-4.05861949920654297 -5.66150188446044922 38.2536239624023438 147 131 116
-5.03073978424072266 -4.27376079559326172 38.4702835083007812 115 135 146
-4.48831081390380859 -3.76490592956542969 38.6240119934082031 169 192 208
-7.14339303970336914 -5.37058115005493164 37.8571128845214844 161 149 137
-6.09641647338867188 -5.36118793487548828 38.0287208557128906 150 142 129
-4.91497707366943359 -4.68057441711425781 38.3551292419433594 196 223 240
-7.28791189193725586 -4.78757047653198242 37.9686622619628906 154 137 121
-6.90054035186767578 -3.76983237266540527 38.3199348449707031 153 135 113
-7.17297935485839844 -3.49615359306335449 38.3375701904296875 174 167 151
-3.90842080116271973 -5.61870670318603516 38.2598533630371094 149 137 121
-4.92373037338256836 -4.57765340805053711 38.3213157653808594 209 241 254
-7.17297935485839844 -3.49615359306335449 38.3375701904296875 174 167 151
-4.29543399810791016 -4.02965736389160156 38.5220069885253906 71 81 80
-7.01348304748535156 -3.28160881996154785 38.4171943664550781 175 161 152
-7.01348304748535156 -3.28160881996154785 38.4171943664550781 175 161 152
-7.17638301849365234 -3.06589341163635254 38.4449729919433594 176 168 157
-5.11175060272216797 -3.02036619186401367 38.6755180358886719 142 126 100
-5.739105224609375 -2.69452977180480957 38.6944923400878906 168 157 135
-4.44400835037231445 -4.05817317962646484 38.5582008361816406 135 155 164
-4.18496990203857422 -2.72219419479370117 38.7832832336425781 158 146 124
-5.71977043151855469 -5.84416341781616211 38.0114517211914062 102 99 89
-5.03420448303222656 -4.29926776885986328 38.4160652160644531 223 246 236
-6.94027853012084961 -5.51360797882080078 37.82244873046875 143 125 103
-6.77407503128051758 -5.49164724349975586 37.8750228881835938 156 146 134
-3.96774482727050781 -5.50249814987182617 38.2997016906738281 129 112 91
-4.02280902862548828 -4.43015527725219727 38.5003776550292969 152 140 124
-6.33413791656494141 -2.72577929496765137 38.6455230712890625 154 137 111
-4.40518760681152344 -3.94431734085083008 38.5477752685546875 184 216 234
-6.33416128158569336 -2.72504091262817383 38.6475410461425781 154 137 111
-4.96912240982055664 -5.32456064224243164 38.1307716369628906 228 230 227
-7.09415292739868164 -4.07643985748291016 38.2322959899902344 168 159 144
-4.41565847396850586 -4.00310850143432617 38.4273223876953125 205 234 244
-7.09967470169067383 -5.99012994766235352 38.16510009765625 162 152 151
-4.53070545196533203 -3.69532990455627441 38.6121444702148438 214 243 248
-5.11662817001342773 -5.53166341781616211 38.0902137756347656 176 209 242
-6.14741611480712891 -4.82398891448974609 38.2146987915039062 159 155 143
-4.10123300552368164 -3.26396870613098145 38.781951904296875 150 142 129
-5.11018133163452148 -5.74893093109130859 37.9790153503417969 49 61 84
-4.91404962539672852 -5.59782218933105469 38.0581512451171875 94 97 104
-4.50542783737182617 -3.64314770698547363 38.6026611328125 138 146 144
-7.2585148811340332 -5.84280252456665039 37.9581947326660156 167 158 149
-5.95547199249267578 -4.42324733734130859 38.2908515930175781 164 151 135
-4.97955799102783203 -4.42728853225708008 38.416412353515625 136 170 195
-4.88419628143310547 -5.57236766815185547 38.0517349243164062 193 195 201
-6.61334800720214844 -3.92887592315673828 38.3004417419433594 165 157 142
-5.31082725524902344 -5.89203310012817383 37.9035263061523438 99 119 147
-5.06344079971313477 -5.30679559707641602 38.10369873046875 84 96 110
-5.09846687316894531 -4.43337631225585938 38.4022331237792969 191 219 220
-5.03957414627075195 -4.50693368911743164 38.3904228210449219 227 251 254
-5.10217952728271484 -4.40293693542480469 38.39349365234375 201 221 230
-5.10134077072143555 -4.267333984375 38.4117431640625 90 90 88
-4.55214738845825195 -3.73056983947753906 38.5938949584960938 160 186 198
-5.4485783576965332 -5.65741682052612305 37.9747123718261719 191 219 241
-5.03472232818603516 -4.38564825057983398 38.4172439575195312 153 184 212
-4.830352783203125 -4.73467063903808594 38.3816146850585938 144 167 177
-5.08319854736328125 -5.70782852172851562 38.0331268310546875 125 146 177
-4.87690162658691406 -4.81005096435546875 38.3892402648925781 227 242 249
-4.5032038688659668 -3.8146510124206543 38.5786056518554688 144 175 206
-5.05752897262573242 -4.46559619903564453 38.3879776000976562 189 213 232
-4.9524383544921875 -4.40262460708618164 38.4066734313964844 119 147 161
-4.90572595596313477 -5.56893587112426758 38.0918350219726562 90 101 115
-4.38520479202270508 -4.06499099731445312 38.5501136779785156 153 179 209
-4.83822965621948242 -4.59233903884887695 38.3886299133300781 129 145 162
-4.80775880813598633 -4.6465001106262207 38.3754081726074219 121 141 165
-4.50059700012207031 -3.97876358032226562 38.5561065673828125 135 156 176
-7.15948057174682617 -3.29192781448364258 38.4319572448730469 172 163 148
-5.02077579498291016 -2.58118081092834473 38.7957115173339844 135 120 87
-4.10403251647949219 -5.4842228889465332 38.2956619262695312 147 133 120
-6.90089988708496094 -4.18613052368164062 38.2132339477539062 163 154 137
-6.90437555313110352 -4.18071508407592773 38.2207794189453125 163 154 137
-4.97989082336425781 -2.64044070243835449 38.7910499572753906 160 148 125
-4.02239370346069336 -4.43074226379394531 38.4887275695800781 150 137 120
-5.13408613204956055 -3.25515866279602051 38.7210922241210938 161 148 132
-5.00940275192260742 -4.98571538925170898 38.1541023254394531 125 107 87
-5.05845117568969727 -5.68335247039794922 38.0205841064453125 99 118 148
-4.98523998260498047 -5.29967737197875977 38.16217041015625 135 136 141
-4.90099334716796875 -4.54101133346557617 38.3942832946777344 214 239 244
-5.08671426773071289 -4.42877769470214844 38.3615303039550781 211 231 238
-5.09392786026000977 -4.43641042709350586 38.4001235961914062 211 231 238
-4.62574100494384766 -3.61797332763671875 38.6170692443847656 170 186 200
-4.98565912246704102 -5.67102384567260742 38.1135139465332031 132 147 173
-5.19919872283935547 -5.5429840087890625 38.0206565856933594 228 255 255
-5.05168962478637695 -5.281768798828125 38.1105422973632812 197 205 212
-4.91332387924194336 -4.51510381698608398 38.3927078247070312 224 245 248
-4.43112707138061523 -4.06254816055297852 38.548126220703125 225 244 247
-5.08816671371459961 -4.2752985954284668 38.4155998229980469 149 153 164
-4.91144418716430664 -4.76030349731445312 38.3308677673339844 244 255 253
-2.11201024055480957 -2.34843873977661133 21.6282539367675781 180 201 218
-4.41258335113525391 -4.04592275619506836 38.5654754638671875 158 186 199
-4.94130659103393555 -4.44225502014160156 38.3810615539550781 244 255 255
-4.42134618759155273 -4.10966014862060547 38.5237388610839844 137 156 173
-6.70017766952514648 -3.93838310241699219 38.2918624877929688 167 155 131
-6.13445520401000977 -3.39433431625366211 38.4750823974609375 153 130 106
-5.45389461517333984 -3.45084667205810547 38.5861549377441406 163 148 127
-4.89825582504272461 -5.33491230010986328 38.2410926818847656 128 118 103
-5.98049545288085938 -5.11200809478759766 38.1392707824707031 158 152 140
-6.85912895202636719 -4.83944511413574219 38.0141487121582031 164 156 143
-5.31789112091064453 -4.80240440368652344 38.3037643432617188 147 134 116
-7.19883155822753906 -4.52439689636230469 38.0515556335449219 176 162 149
-6.834716796875 -4.05935001373291016 38.2506561279296875 169 156 138
-6.84356546401977539 -3.87593889236450195 38.3135414123535156 180 168 152
-6.71216535568237305 -3.38716030120849609 38.4241256713867188 175 159 134
-6.29831695556640625 -3.10191226005554199 38.5554656982421875 173 165 147
-7.06027936935424805 -5.10433006286621094 37.9095191955566406 146 131 110
-5.81710386276245117 -5.13168239593505859 38.1612014770507812 152 139 123
-5.81710386276245117 -5.13168239593505859 38.1612014770507812 152 139 123
-5.75824069976806641 -4.17923688888549805 38.3717117309570312 160 145 124
-5.45080757141113281 -3.82864165306091309 38.4917411804199219 142 122 95
-5.45017433166503906 -3.83001017570495605 38.4904975891113281 142 122 95
-6.2236781120300293 -3.40115737915039062 38.4672508239746094 150 133 105
-3.93237137794494629 -3.61281776428222656 38.6857719421386719 151 138 121
-7.29611063003540039 -3.19422268867492676 38.3862457275390625 177 168 153
-5.29949808120727539 -2.87567496299743652 38.6951522827148438 163 152 132
-4.23473215103149414 -2.95562982559204102 38.70208740234375 156 141 118
-7.00465488433837891 -2.73246264457702637 38.5679359436035156 178 165 148
-6.61930704116821289 -5.25795698165893555 38.0011558532714844 157 150 134
-6.61892223358154297 -5.25615596771240234 38.0004425048828125 157 150 134
-6.79977655410766602 -3.9681553840637207 38.2516250610351562 150 136 109
-6.28617668151855469 -4.05326747894287109 38.2982864379882812 164 151 132
-4.22552061080932617 -3.9629213809967041 38.5970230102539062 145 130 109
-6.01016855239868164 -3.21438479423522949 38.5731010437011719 160 148 126
-6.99951505661010742 -5.06364822387695312 37.9546890258789062 160 152 141
-6.86007022857666016 -4.94816303253173828 38.0080490112304688 146 130 114
-6.21656465530395508 -2.59187984466552734 38.5863571166992188 170 162 141
-7.47259950637817383 -5.19048690795898438 37.9577674865722656 169 161 150
-5.23327255249023438 -4.66730165481567383 38.3049125671386719 145 136 119
-6.26004409790039062 -3.84584355354309082 38.3947181701660156 148 132 106
-4.09253072738647461 -3.27013301849365234 38.7145347595214844 149 141 128
-5.13352727890014648 -5.54894542694091797 38.3137321472167969 171 204 236
-5.42106151580810547 -5.57580184936523438 38.013427734375 149 136 123
-4.51754426956176758 -3.92264056205749512 38.5645408630371094 131 151 160
-4.42065143585205078 -3.98728322982788086 38.578857421875 149 182 202
-4.64738607406616211 -3.62865781784057617 38.60198974609375 83 92 93
-5.14890527725219727 -5.39833831787109375 38.0642547607421875 172 195 213
-4.83481740951538086 -4.71873855590820312 38.3656158447265625 195 215 225
-5.01343584060668945 -4.36797952651977539 38.4065971374511719 153 183 205
-4.98813581466674805 -4.6167292594909668 38.3620452880859375 177 193 194
-4.79918050765991211 -3.84354376792907715 38.6417655944824219 179 186 199
-5.30404138565063477 -5.48642492294311523 38.1260986328125 115 108 92
-5.1424102783203125 -5.34119367599487305 37.9163551330566406 120 110 98
-4.46758747100830078 -3.74603176116943359 38.594146728515625 164 188 192
-4.52690362930297852 -3.6506049633026123 38.5717201232910156 149 181 195
-4.92912626266479492 -4.57283496856689453 38.3795661926269531 211 248 253
-5.3948969841003418 -5.59864521026611328 37.9776268005371094 172 203 220
-5.73813104629516602 -4.44222688674926758 38.3260993957519531 154 141 124
-4.31734943389892578 -4.00924015045166016 38.5679244995117188 196 214 220
-4.40938758850097656 -4.78140401840209961 38.38299560546875 148 135 119
-6.83337116241455078 -4.13118457794189453 38.2519950866699219 150 134 110
-5.97515392303466797 -4.03178024291992188 38.3908348083496094 166 155 137
-7.44985198974609375 -5.37290143966674805 37.811431884765625 167 161 149
-6.75459527969360352 -3.92942047119140625 38.2840995788574219 157 133 107
-6.26058435440063477 -4.84369564056396484 38.1288337707519531 161 154 138
-6.78984975814819336 -3.37327003479003906 38.3679618835449219 171 155 139
-4.48982143402099609 -3.16298413276672363 38.7212028503417969 132 121 93
-7.37104320526123047 -3.68106269836425781 38.22900390625 175 161 152
-4.03163909912109375 -5.36356067657470703 38.2681198120117188 149 137 123
-7.13093757629394531 -4.06279516220092773 38.1960678100585938 169 161 148
-5.32393836975097656 -5.90590572357177734 37.9172248840332031 61 83 110
-6.93183422088623047 -3.95854473114013672 38.3958282470703125 169 154 135
-6.48341608047485352 -4.06715202331542969 38.3117561340332031 149 137 115
-6.979705810546875 -3.72251701354980469 38.3331108093261719 169 156 140
-4.87588644027709961 -4.76872158050537109 38.3438911437988281 152 184 211
-7.35252761840820312 -3.21112632751464844 38.5667228698730469 177 165 151
-6.64399099349975586 -2.49877667427062988 38.5507698059082031 175 160 139
-6.38434457778930664 -2.56955265998840332 38.6491775512695312 174 161 146
-4.88617992401123047 -4.51986360549926758 38.3986587524414062 125 147 162
-6.38434457778930664 -2.56955265998840332 38.6491775512695312 174 161 146
-7.11133098602294922 -5.54215288162231445 37.7842788696289062 148 125 104
-4.41920948028564453 -5.09702634811401367 38.3552093505859375 150 138 124
-7.37392807006835938 -3.67915177345275879 38.2296485900878906 174 158 142
-5.59952211380004883 -5.74642848968505859 37.8097763061523438 184 194 195
-5.56129789352416992 -3.39792180061340332 38.5857276916503906 144 124 99
-6.79175806045532227 -2.89097952842712402 38.5174331665039062 159 135 109
-5.68679952621459961 -2.88334989547729492 38.701080322265625 148 132 109
-4.49138450622558594 -3.98406791687011719 38.53839111328125 132 155 173
-4.38532924652099609 -4.08180761337280273 38.5326919555664062 231 255 255
-4.42071437835693359 -5.09822273254394531 38.3650970458984375 100 94 87
-4.63685512542724609 -5.00566482543945312 38.3618316650390625 104 97 88
-3.23389267921447754 -3.46500062942504883 28.4670009613037109 0 0 0
-5.18633556365966797 -5.8068690299987793 37.9113616943359375 52 67 90
-5.33334779739379883 -5.51312398910522461 38.1599617004394531 114 107 101
-4.89806985855102539 -5.49341201782226562 38.1076927185058594 59 60 55
-4.99361515045166016 -5.24157953262329102 38.1797256469726562 108 97 77
-4.47681570053100586 -5.88437604904174805 38.4062004089355469 150 138 124
-4.95448064804077148 -4.6036982536315918 38.4027328491210938 194 225 243
-4.92877674102783203 -4.62270498275756836 38.3735313415527344 148 180 195
-4.85607719421386719 -4.67972803115844727 38.3838005065917969 163 195 220
-5.03819751739501953 -4.50702953338623047 38.3922004699707031 234 255 255
-4.58534526824951172 -3.77250409126281738 38.5795822143554688 186 210 220
-4.42427396774291992 -3.76251912117004395 38.5875778198242188 178 187 183
-7.17272233963012695 -5.82120609283447266 38.0526924133300781 160 152 141
-5.20487356185913086 -5.81114959716796875 37.9563751220703125 100 119 145
-5.15187644958496094 -5.76624917984008789 37.9922904968261719 52 68 94
-5.12947750091552734 -5.34920883178710938 38.0230293273925781 155 166 175
-6.81613969802856445 -5.05604887008666992 38.1585121154785156 164 154 144
-4.98391866683959961 -5.33320903778076172 38.0836143493652344 116 135 159
-5.13196468353271484 -4.35533571243286133 38.3003273010253906 166 175 182
-4.93760919570922852 -4.42658138275146484 38.4045677185058594 120 145 149
-5.01598358154296875 -4.29636240005493164 38.4553146362304688 126 146 155
-4.492767333984375 -3.64133954048156738 38.6311378479003906 84 93 102
-5.33904838562011719 -5.51400136947631836 38.0488357543945312 112 103 94
-5.13551235198974609 -5.58297157287597656 38.1238327026367188 196 230 255
-5.05437088012695312 -5.30874347686767578 38.1561546325683594 74 90 107
-5.01419878005981445 -4.51262426376342773 38.3757171630859375 230 252 253
-4.28766012191772461 -4.01938247680664062 38.5158653259277344 76 83 83
-4.4058680534362793 -3.94474983215332031 38.5449562072753906 181 212 229
-4.54745197296142578 -3.55861258506774902 38.4662590026855469 144 164 173
-4.93717432022094727 -5.51713705062866211 38.182525634765625 90 99 112
-4.85566997528076172 -4.67727947235107422 38.3450050354003906 168 198 221
-4.8277587890625 -3.88437509536743164 38.372344970703125 107 104 113
-7.03363370895385742 -5.27989339828491211 37.9545402526855469 147 132 112
-4.46720123291015625 -3.66707110404968262 38.6027641296386719 101 98 98
-5.14129209518432617 -5.76836395263671875 37.9719619750976562 50 65 89
-4.87239360809326172 -4.5538640022277832 38.3904075622558594 202 227 239
-5.07978343963623047 -4.4154963493347168 38.3970375061035156 154 185 199
-4.56060314178466797 -3.65610146522521973 38.5862808227539062 178 217 255
-5.67363166809082031 -5.79870319366455078 38.0136795043945312 122 110 95
-5.21812248229980469 -5.87394046783447266 37.9247856140136719 14 16 27
-5.01481008529663086 -4.38644075393676758 38.3855247497558594 122 150 171
-4.43195533752441406 -3.95226192474365234 38.5514030456542969 149 181 202
