ply
format ascii 1.0
element vertex 666
property float x
property float y
property float z
property uchar red
property uchar green
property uchar blue
end_header
17.8914394378662109 -3.60869622230529785 118.683670043945312 208 193 181
5.35749578475952148 -2.24063801765441895 87.5496978759765625 148 113 107
9.92650604248046875 -2.24146246910095215 87.53179931640625 119 94 90
9.80298614501953125 -1.95983541011810303 87.5611724853515625 166 137 129
6.59191560745239258 -1.94293439388275146 87.4858245849609375 148 113 94
9.61446952819824219 -1.89016580581665039 87.5188064575195312 185 155 147
7.93030166625976562 -1.74656176567077637 87.5267257690429688 181 153 141
-6.34282922744750977 0.333771973848342896 87.4696197509765625 131 104 103
11.6951742172241211 -0.857884526252746582 87.23712158203125 202 189 180
-6.03614187240600586 0.455514341592788696 87.514495849609375 106 87 80
10.2491416931152344 -3.25266408920288086 87.5636749267578125 137 101 87
6.69995212554931641 -3.06808733940124512 87.5630722045898438 147 99 89
5.24934244155883789 -2.74192333221435547 87.4115219116210938 161 113 99
6.55286741256713867 -3.79035520553588867 87.56634521484375 136 92 79
-10.3492202758789062 0.194934368133544922 87.5033340454101562 152 114 105
10.7445869445800781 -3.74084281921386719 87.5870132446289062 163 129 120
6.55756378173828125 -3.68031430244445801 87.566741943359375 138 94 81
19.7621631622314453 3.15684056282043457 118.631729125976562 205 192 183
4.99313783645629883 -3.47370600700378418 87.5468063354492188 175 138 117
10.7187662124633789 -3.46245145797729492 87.4779739379882812 134 102 95
11.1296291351318359 -3.46310210227966309 87.6511001586914062 105 74 69
7.39193248748779297 -0.877903461456298828 87.5026092529296875 204 181 173
3.80536532402038574 1.74811327457427979 118.5902099609375 208 198 189
9.25254631042480469 -3.39747786521911621 87.5740432739257812 147 104 88
-9.24723720550537109 1.51226532459259033 87.5358428955078125 111 75 63
11.3414783477783203 -3.40067028999328613 87.570556640625 107 69 66
10.4702520370483398 -3.38795614242553711 87.5569305419921875 158 121 112
7.2002716064453125 -3.19139981269836426 87.5365524291992188 153 116 107
-1.22541642189025879 -3.84697198867797852 118.327423095703125 208 190 176
8.67931461334228516 -3.1940302848815918 87.5790481567382812 181 147 135
22.5680999755859375 2.07648801803588867 118.605918884277344 206 192 183
9.03994464874267578 -3.18455243110656738 87.5559844970703125 178 144 124
5.79661655426025391 -3.12297368049621582 87.5467147827148438 188 155 148
9.88969802856445312 -0.794425308704376221 87.530975341796875 155 117 106
11.230316162109375 -3.12099051475524902 87.5053787231445312 132 98 95
10.581934928894043 -1.49301433563232422 87.6614303588867188 118 78 70
7.49471139907836914 -3.04671025276184082 87.5229415893554688 128 85 76
6.98124408721923828 -1.55000340938568115 87.4809799194335938 155 116 101
11.2795639038085938 -3.82927870750427246 87.9721527099609375 105 74 64
11.393223762512207 -3.5329127311706543 87.3598251342773438 151 115 107
7.72863435745239258 -2.90891671180725098 87.4958648681640625 153 125 104
7.6317753791809082 -2.91240382194519043 87.5338973999023438 195 168 151
-5.64437675476074219 0.976410269737243652 87.5298995971679688 139 104 100
9.20982646942138672 -2.85885787010192871 87.4184188842773438 125 78 68
8.3076934814453125 0.623141944408416748 118.556541442871094 198 188 176
10.596034049987793 -2.84764647483825684 87.59930419921875 143 105 96
7.59072589874267578 -2.84350395202636719 87.542327880859375 140 99 87
5.96144628524780273 -2.77722978591918945 87.5532608032226562 164 137 131
7.96124982833862305 -2.64245986938476562 87.468109130859375 168 130 114
6.88580656051635742 -2.63567686080932617 87.620574951171875 187 150 142
6.82269191741943359 -2.18768310546875 87.5026473999023438 165 129 118
9.24541187286376953 -2.56429600715637207 87.548736572265625 135 92 86
6.23956871032714844 -2.50025391578674316 87.5614471435546875 168 120 105
7.64368295669555664 -2.5054323673248291 87.52703857421875 174 134 120
7.70299816131591797 -2.41908860206604004 87.4690475463867188 162 122 110
7.81272029876708984 -1.54113578796386719 87.5737686157226562 113 77 68
6.56019210815429688 -2.36629080772399902 87.6097869873046875 149 103 87
10.1491336822509766 -0.759906172752380371 87.55670166015625 126 94 83
6.23202228546142578 -2.35550975799560547 87.4416885375976562 162 110 94
6.60344552993774414 -2.30151844024658203 87.5842208862304688 160 123 107
-7.93296718597412109 0.758173346519470215 87.5328750610351562 168 134 122
4.94499015808105469 -3.24495768547058105 87.7268753051757812 198 167 143
8.98835563659667969 -2.2219536304473877 87.393646240234375 152 108 99
8.1564178466796875 -2.22909975051879883 87.559326171875 178 146 135
8.8053741455078125 -2.22754168510437012 87.556243896484375 188 160 148
5.47208595275878906 -2.15926122665405273 87.6187515258789062 193 161 150
0.759563982486724854 1.98498451709747314 118.62957763671875 209 199 188
10.1716365814208984 -2.16868782043457031 87.6103515625 157 132 124
-7.67095470428466797 0.313277542591094971 87.621826171875 114 77 68
5.49488162994384766 -3.5272223949432373 87.470489501953125 199 172 150
8.099700927734375 -2.08417677879333496 87.5412216186523438 171 138 129
13.4154567718505859 2.57834148406982422 118.550407409667969 209 196 187
8.04510116577148438 -2.0111229419708252 87.6502761840820312 118 87 76
-5.76288747787475586 0.527919411659240723 87.5068511962890625 99 68 65
9.94904136657714844 -1.88264918327331543 87.5541152954101562 175 148 142
11.579686164855957 -1.8878711462020874 87.5525436401367188 104 82 72
9.26978588104248047 -2.75144577026367188 87.34375 123 76 70
-8.82270431518554688 -5.91881752014160156 118.601348876953125 210 196 187
9.60307121276855469 2.3838961124420166 118.513267517089844 210 196 183
5.7203211784362793 -1.7494279146194458 87.6005935668945312 163 133 115
10.0302829742431641 -5.85437870025634766 118.618659973144531 207 199 188
9.46527671813964844 -1.67996811866760254 87.5381393432617188 118 88 80
9.55893707275390625 0.414969116449356079 118.465858459472656 211 197 186
6.10791873931884766 -1.60959339141845703 87.5878677368164062 162 116 101
-10.6178798675537109 0.527021467685699463 87.498046875 206 188 178
-20.8870220184326172 2.06583094596862793 118.452598571777344 206 193 185
8.70254611968994141 -1.53712499141693115 87.5820541381835938 110 77 67
6.51618242263793945 -1.41395509243011475 87.6761703491210938 169 153 144
8.63469982147216797 -1.39338219165802002 87.5691986083984375 126 89 80
16.9438209533691406 3.41500306129455566 118.60101318359375 205 191 180
9.42763996124267578 -1.33505535125732422 87.5105438232421875 119 86 75
-6.92100095748901367 -0.335765480995178223 87.7698135375976562 95 68 59
-10.7931394577026367 0.701871812343597412 87.4765090942382812 211 197 190
6.46573686599731445 -1.26614487171173096 87.3686904907226562 162 142 133
-9.92682075500488281 1.15344738960266113 87.4963226318359375 175 152 136
-7.71000766754150391 0.687474608421325684 87.481231689453125 129 82 74
-5.57430076599121094 -0.00278215063735842705 87.5231704711914062 147 117 109
7.58818626403808594 -3.0188603401184082 87.5989227294921875 171 141 129
-6.71419620513916016 2.64707636833190918 87.461456298828125 116 79 70
-5.96204137802124023 0.0582884848117828369 87.5284271240234375 117 99 91
-8.03885459899902344 2.78544306755065918 87.447296142578125 177 139 118
-5.04339790344238281 0.204738408327102661 87.4864883422851562 119 76 69
11.7558021545410156 0.730990946292877197 118.611068725585938 207 193 182
-9.67732715606689453 0.253744214773178101 87.5479278564453125 167 133 121
-21.6055240631103516 2.28812360763549805 118.597984313964844 204 190 179
-5.57896947860717773 0.441808760166168213 87.3791351318359375 106 80 73
13.9232301712036133 3.42279219627380371 118.660987854003906 207 197 188
8.00501823425292969 -2.07937765121459961 87.4330673217773438 117 85 74
8.00362873077392578 -2.0776207447052002 87.4277496337890625 117 85 74
9.77805900573730469 -3.46100878715515137 87.6392898559570312 163 118 104
-6.03080606460571289 -0.200225397944450378 87.4991912841796875 190 173 166
9.25373172760009766 -3.39641737937927246 87.5863189697265625 147 104 88
10.8142290115356445 -3.24189352989196777 87.540557861328125 120 101 95
12.1486396789550781 3.26727557182312012 118.446136474609375 207 195 184
9.24569511413574219 -2.5642087459564209 87.5585250854492188 135 92 86
7.98044109344482422 -3.90874719619750977 87.7911529541015625 129 79 68
7.64368295669555664 -2.5054323673248291 87.52703857421875 174 134 120
19.6542377471923828 -7.34196329116821289 118.483306884765625 185 171 160
8.1564178466796875 -2.22909975051879883 87.559326171875 178 146 135
-6.29393529891967773 2.81689786911010742 87.591064453125 123 79 73
8.10407924652099609 -2.08344864845275879 87.58563232421875 171 138 129
8.18921661376953125 -1.738822340965271 87.56256103515625 115 85 74
6.10863637924194336 -1.60977184772491455 87.5970077514648438 162 116 101
-2.91098380088806152 -5.44099903106689453 118.283218383789062 211 201 191
8.59603500366210938 -3.59648346900939941 87.4578781127929688 178 140 121
-13.4935684204101562 0.441454857587814331 100.19671630859375 202 193 186
9.10581493377685547 -3.59840011596679688 87.533111572265625 177 138 121
6.69992637634277344 -3.0680699348449707 87.5623855590820312 147 99 89
9.10581493377685547 -3.59840011596679688 87.533111572265625 177 138 121
5.53130674362182617 -3.89140176773071289 87.8366012573242188 210 184 173
9.65773677825927734 -3.5908966064453125 87.5219192504882812 129 93 81
11.5164461135864258 -0.84026414155960083 87.5891036987304688 136 111 104
-10.3277397155761719 0.460687726736068726 87.529022216796875 147 104 97
9.18970680236816406 -1.19971823692321777 87.5515899658203125 161 124 115
9.96912384033203125 -1.20147967338562012 87.534942626953125 130 89 83
9.11215305328369141 -1.19493520259857178 87.5545806884765625 132 93 85
-20.4922466278076172 4.01293134689331055 118.516067504882812 202 189 181
-11.3866767883300781 2.30574774742126465 87.5160064697265625 138 98 82
5.37879562377929688 -1.33529412746429443 87.4310073852539062 170 134 120
7.70686960220336914 -1.39868271350860596 87.5760345458984375 140 113 101
5.33379602432250977 -1.39383101463317871 87.5238723754882812 151 112 98
21.5120468139648438 1.88739585876464844 118.580581665039062 203 194 187
10.1501150131225586 -1.67906522750854492 87.465179443359375 122 97 87
4.7774052619934082 -3.67725205421447754 106.713821411132812 173 132 114
6.48650646209716797 -2.01341938972473145 87.48406982421875 189 154 134
6.03115224838256836 -2.06519746780395508 87.5537033081054688 170 128 112
10.9898748397827148 -2.15507769584655762 87.5697784423828125 118 93 86
-9.60085391998291016 2.31550812721252441 87.5303421020507812 151 114 98
7.84358644485473633 -2.14515304565429688 87.5308380126953125 155 122 107
4.84491682052612305 -3.14376640319824219 96.6578216552734375 111 65 54
10.0699481964111328 -2.17038536071777344 87.4283065795898438 125 105 96
11.1149368286132812 -2.23568916320800781 87.6131210327148438 113 84 78
6.4855194091796875 -2.30049943923950195 87.444549560546875 174 128 113
10.1431131362915039 -2.35921978950500488 87.4982528686523438 155 130 123
10.0747604370117188 -2.37043309211730957 87.5344772338867188 117 90 84
8.36204147338867188 -2.43142914772033691 87.5454483032226562 158 130 116
6.80091094970703125 -2.57683873176574707 87.4473114013671875 158 131 119
4.82373714447021484 -1.80914270877838135 103.081123352050781 132 69 62
8.73577117919921875 -2.70393538475036621 87.5224609375 172 131 113
6.73686790466308594 -2.76558589935302734 87.4754638671875 155 136 124
9.75999164581298828 -2.97443795204162598 87.5087432861328125 174 136 127
5.9837346076965332 -3.04587197303771973 87.55596923828125 134 97 89
-6.00544404983520508 2.65791034698486328 87.4599990844726562 164 137 129
6.0647740364074707 -3.11640048027038574 87.588653564453125 161 124 118
4.99222755432128906 -2.3001258373260498 87.51593017578125 142 95 84
8.80671215057373047 -3.11726808547973633 87.5924148559570312 186 150 134
6.93917179107666016 -3.19818997383117676 87.6087646484375 152 118 108
8.93487834930419922 -3.1888272762298584 87.5625152587890625 146 114 97
10.3349161148071289 -3.19034051895141602 87.5727691650390625 143 106 91
10.4111814498901367 -3.27126884460449219 87.5921401977539062 121 83 72
6.09300708770751953 -3.32107138633728027 87.5441513061523438 175 142 135
9.33718681335449219 -3.52686524391174316 87.688873291015625 148 104 89
9.05170917510986328 -2.77373313903808594 87.5089492797851562 128 82 74
6.71262884140014648 -3.57875967025756836 87.5662765502929688 139 102 84
10.5972757339477539 -3.73380827903747559 87.532470703125 180 146 137
5.26908397674560547 -3.74980044364929199 87.6713104248046875 143 90 74
-9.05842494964599609 0.95751798152923584 87.4559783935546875 146 108 99
9.90270137786865234 -3.79927206039428711 87.5800018310546875 132 89 76
-10.5245199203491211 0.829576194286346436 87.5697479248046875 164 138 125
10.4084224700927734 -3.27178525924682617 87.5714950561523438 121 83 72
-4.83831596374511719 0.63486170768737793 92.9864578247070312 118 67 55
8.93309879302978516 -3.18904757499694824 87.5495223999023438 146 114 97
-9.78040504455566406 0.478516101837158203 87.4972686767578125 126 107 93
9.77299022674560547 -2.56092572212219238 87.6728134155273438 104 74 63
6.73929882049560547 -2.76514410972595215 87.49420166015625 155 136 124
-10.4374761581420898 0.886741340160369873 87.44183349609375 137 109 96
10.8640975952148438 -2.08644962310791016 87.5366897583007812 112 93 86
-11.5877628326416016 -0.220013543963432312 87.4860916137695312 161 133 122
9.13073539733886719 -3.18150448799133301 87.6028366088867188 133 98 79
10.948695182800293 -1.87040090560913086 87.1168136596679688 114 83 75
-11.149810791015625 -6.12533330917358398 118.510147094726562 207 200 194
9.36501216888427734 -2.76107978820800781 87.6284408569335938 131 84 76
8.80521774291992188 -2.55721235275268555 87.5470428466796875 204 181 165
8.21764469146728516 -2.98893475532531738 87.50799560546875 175 157 144
-4.56871318817138672 1.0234609842300415 115.767608642578125 200 186 175
8.22496128082275391 -2.99166035652160645 87.59149169921875 175 157 144
5.26935243606567383 -2.31411457061767578 87.4004058837890625 173 133 129
10.5039949417114258 -3.39839386940002441 87.8514175415039062 161 119 113
8.74005794525146484 -0.989449024200439453 87.5347976684570312 201 161 153
4.79744958877563477 -3.39792561531066895 97.1195144653320312 149 103 90
11.3731842041015625 -3.22166681289672852 87.517425537109375 103 69 67
-9.82048130035400391 1.30623233318328857 87.5112838745117188 125 90 71
-8.48950862884521484 -0.222200363874435425 87.5467910766601562 166 137 129
8.14429664611816406 -3.47861242294311523 87.5667266845703125 170 145 131
9.95872688293457031 -3.59213423728942871 87.5649642944335938 138 94 81
-5.50506782531738281 0.816866934299468994 87.5289764404296875 100 68 66
6.5597076416015625 -3.91682910919189453 87.690704345703125 196 150 137
-11.1890335083007812 0.457347959280014038 87.4686737060546875 152 118 102
5.21997833251953125 -1.55032181739807129 87.610687255859375 165 121 115
17.2991600036621094 -4.28191995620727539 118.411918640136719 204 192 180
-6.12492561340332031 1.29130184650421143 87.4925689697265625 134 105 99
5.62906694412231445 -3.27793526649475098 87.5268020629882812 154 108 95
-8.8653106689453125 0.229441180825233459 87.5222320556640625 135 105 94
15.0836572647094727 1.08581364154815674 118.322296142578125 207 195 183
18.6971645355224609 1.43233323097229004 118.612236022949219 201 188 180
21.5120468139648438 1.88739585876464844 118.580581665039062 203 194 187
-5.16949462890625 1.02070116996765137 87.5113449096679688 178 140 137
-8.17206954956054688 1.15970206260681152 87.5142440795898438 172 143 125
7.48189449310302734 -1.03289306163787842 87.540618896484375 204 199 187
-1.2785874605178833 2.9906623363494873 118.56658935546875 204 197 189
8.81911849975585938 3.1978757381439209 118.387657165527344 188 161 145
8.81947803497314453 3.1980288028717041 118.394691467285156 188 161 145
5.92079019546508789 2.94862174987792969 118.559066772460938 205 193 181
19.7602787017822266 3.15528607368469238 118.623985290527344 205 192 183
-6.39142513275146484 1.19648456573486328 87.5139541625976562 96 68 64
13.4140462875366211 2.57839059829711914 118.538650512695312 209 196 187
17.9797267913818359 0.653601229190826416 118.526123046875 185 171 160
-5.49330425262451172 0.326491773128509521 87.4535598754882812 114 84 79
22.096160888671875 -3.95415353775024414 118.453956604003906 203 193 183
9.55893707275390625 0.414969116449356079 118.465858459472656 211 197 186
18.6492385864257812 0.869794666767120361 118.618545532226562 206 196 186
-10.5133247375488281 1.02439427375793457 87.5431442260742188 178 156 142
-6.06827211380004883 1.45936048030853271 87.5130691528320312 90 66 62
-10.8176336288452148 0.198143362998962402 87.54022216796875 182 168 163
-8.25828361511230469 0.683446645736694336 87.4936294555664062 118 76 68
-9.43453311920166016 0.479401379823684692 87.442047119140625 124 80 72
-10.2440118789672852 0.544058501720428467 87.4780426025390625 126 86 78
-6.39404582977294922 0.519216179847717285 87.5756378173828125 94 70 66
20.7877693176269531 1.71098124980926514 118.517593383789062 189 168 151
-6.06827211380004883 1.45936048030853271 87.5130691528320312 90 66 62
-6.8196864128112793 1.58879053592681885 87.4900970458984375 116 77 70
-7.89966249465942383 -5.61223983764648438 118.513389587402344 212 195 188
17.5809402465820312 -1.06502628326416016 118.567436218261719 208 199 191
-7.56673002243041992 1.70699667930603027 87.5285415649414062 106 72 67
-20.1448383331298828 -1.85101914405822754 118.52667236328125 205 195 186
-5.69504594802856445 1.86612224578857422 87.5471878051757812 144 124 117
22.2225570678710938 3.36791133880615234 118.851676940917969 204 191 182
-7.90246677398681641 0.533891856670379639 87.489410400390625 157 118 103
-1.98450839519500732 3.48386073112487793 118.535751342773438 210 200 191
20.2239646911621094 -5.93309545516967773 118.826820373535156 205 196 189
-9.42647075653076172 2.03976082801818848 87.512359619140625 141 99 83
20.4730720520019531 -5.3545069694519043 118.421470642089844 206 193 185
-9.87172317504882812 0.373834222555160522 87.517974853515625 183 165 153
7.59783029556274414 -3.72399067878723145 87.5895919799804688 131 75 62
2.87396907806396484 3.34332823753356934 118.479835510253906 208 198 188
6.99503231048583984 2.04415035247802734 118.592643737792969 210 196 187
17.774810791015625 -3.24693942070007324 118.53106689453125 205 191 180
6.99194669723510742 -2.71492600440979004 87.49169921875 139 86 82
21.3961811065673828 3.81998085975646973 118.657691955566406 205 193 183
22.3931236267089844 -1.58921492099761963 118.57281494140625 205 195 186
6.99503231048583984 2.04415035247802734 118.592643737792969 210 196 187
10.1122312545776367 -3.74177002906799316 87.5652923583984375 125 83 74
11.4495944976806641 2.05710601806640625 118.503387451171875 206 196 186
20.4883670806884766 2.17529892921447754 118.604011535644531 205 195 186
-9.72931385040283203 2.39112687110900879 87.3325881958007812 154 132 118
19.5978527069091797 2.20883440971374512 118.520027160644531 206 194 187
-19.7175655364990234 2.28477120399475098 118.468185424804688 204 191 182
8.15188789367675781 3.13887166976928711 118.641273498535156 205 187 177
-5.69504594802856445 1.86612224578857422 87.5471878051757812 144 124 117
-6.57843637466430664 -5.54942750930786133 118.643180847167969 210 196 187
3.30690288543701172 0.594111621379852295 118.546524047851562 206 190 175
16.3627777099609375 0.794948756694793701 118.527168273925781 204 193 184
6.2845458984375 -3.70388007164001465 87.5613784790039062 136 88 75
-10.4781703948974609 0.130126968026161194 87.5205154418945312 114 80 70
-7.4585576057434082 0.126710668206214905 87.5053176879882812 156 128 117
-17.0684242248535156 3.61532163619995117 118.340461730957031 206 193 185
8.62548446655273438 1.08801078796386719 118.532699584960938 209 196 187
-6.60159540176391602 0.252652108669281006 87.5006866455078125 91 67 65
-7.65243196487426758 0.814112365245819092 87.4852981567382812 123 79 66
-10.9320516586303711 1.01442217826843262 87.5117263793945312 134 106 95
10.1467933654785156 -3.34081506729125977 87.5182952880859375 142 109 92
-19.7244491577148438 2.28540158271789551 118.502555847167969 204 191 182
-10.1949005126953125 2.19318795204162598 87.5609130859375 150 114 98
21.6188602447509766 2.4252617359161377 118.690879821777344 203 195 184
-8.39961719512939453 1.36887609958648682 87.561309814453125 134 91 75
-18.4515876770019531 2.65879273414611816 118.552093505859375 206 196 187
-8.84141635894775391 1.19633579254150391 87.5146484375 125 82 74
-11.4657888412475586 1.41478455066680908 87.5038909912109375 129 95 85
-11.4701299667358398 1.79322755336761475 87.4783706665039062 120 88 75
-7.50152587890625 -1.81993329524993896 118.529014587402344 210 201 192
22.6586532592773438 0.208452314138412476 118.562370300292969 205 193 180
9.52949714660644531 -3.46568083763122559 87.520751953125 131 98 79
-3.06561589241027832 0.244084343314170837 118.567001342773438 210 196 187
3.30701398849487305 0.596254229545593262 118.477996826171875 206 190 175
6.45761394500732422 -2.98192381858825684 87.1062850952148438 177 131 118
9.38093185424804688 3.01474833488464355 118.529296875 208 194 185
5.92309761047363281 -3.19822359085083008 87.5147552490234375 137 104 97
5.79125642776489258 -2.56974244117736816 87.5960235595703125 159 127 116
-10.7409372329711914 1.25561773777008057 87.4848556518554688 197 180 170
4.80536890029907227 -2.25491690635681152 103.835243225097656 177 148 135
-11.2285280227661133 0.972318828105926514 87.75592041015625 162 130 119
-2.11209630966186523 -7.02532339096069336 118.513877868652344 208 199 187
5.92309761047363281 -3.19822359085083008 87.5147552490234375 137 104 97
-9.6376190185546875 1.81223678588867188 87.4555587768554688 124 82 70
16.9719867706298828 -2.15564775466918945 118.576072692871094 189 172 162
-7.41456747055053711 0.408055275678634644 87.5085067749023438 121 89 79
-8.24641513824462891 1.63294410705566406 87.5033111572265625 156 114 98
16.531494140625 -1.89728081226348877 118.596298217773438 186 167 153
10.0731449127197266 -1.53987526893615723 87.521728515625 178 149 143
-3.28280901908874512 -6.70273542404174805 118.618072509765625 208 194 183
-8.76885604858398438 -1.8303978443145752 118.514480590820312 210 200 191
7.20788860321044922 -1.3032536506652832 87.57159423828125 117 74 65
-7.96998310089111328 0.895637214183807373 87.476348876953125 161 127 117
3.95444893836975098 3.56962418556213379 118.63671875 210 196 186
4.62414836883544922 0.106615513563156128 118.533226013183594 208 194 181
-10.2873296737670898 2.20627832412719727 87.7610244750976562 168 135 118
23.7726535797119141 0.463435620069503784 118.578392028808594 205 196 187
6.58230161666870117 2.64724540710449219 118.29010009765625 210 192 182
8.80758953094482422 -3.11810636520385742 87.5995941162109375 186 150 134
16.6512584686279297 -3.14250659942626953 118.496902465820312 209 196 187
5.01666641235351562 0.601805269718170166 118.660232543945312 187 167 157
-5.23217487335205078 1.30408132076263428 87.522674560546875 113 78 72
-3.33330655097961426 0.933286726474761963 118.575263977050781 189 175 164
-8.31901168823242188 0.809150040149688721 87.4847488403320312 147 101 96
-8.62272357940673828 2.0993340015411377 87.4490280151367188 127 81 68
9.86926841735839844 1.07600843906402588 118.53656005859375 207 191 176
-10.3661222457885742 0.67107158899307251 87.497894287109375 203 176 165
4.88441896438598633 -3.93455123901367188 103.164634704589844 136 82 65
21.1601295471191406 1.16371142864227295 118.527473449707031 208 195 184
-11.0841608047485352 0.429874211549758911 87.5666122436523438 120 82 73
-10.6670665740966797 1.81509792804718018 87.5144500732421875 126 83 70
-5.76288747787475586 0.527919411659240723 87.5068511962890625 99 68 65
-11.3471183776855469 0.905351877212524414 87.5570526123046875 144 109 99
6.34541702270507812 -3.90654754638671875 87.644134521484375 138 89 75
22.5664329528808594 -4.30152130126953125 118.572837829589844 203 190 181
5.12591648101806641 -3.5650026798248291 87.4902496337890625 163 100 82
-8.05830669403076172 0.339926928281784058 87.5042877197265625 200 186 173
-21.6432399749755859 1.90085351467132568 118.549423217773438 205 188 180
5.09773731231689453 -2.88264322280883789 87.5377883911132812 168 111 92
18.5168209075927734 -3.79797101020812988 118.526191711425781 185 168 160
-6.17872285842895508 1.05662393569946289 87.5040435791015625 99 70 64
17.6922931671142578 2.19733858108520508 118.56903076171875 207 195 181
-19.0250930786132812 -4.22320842742919922 118.495086669921875 190 173 165
-7.06810760498046875 1.14034581184387207 87.5161590576171875 113 82 77
16.9726696014404297 -2.15550875663757324 118.580596923828125 189 172 162
2.70433235168457031 2.31867218017578125 118.578285217285156 208 198 189
4.27556657791137695 2.49688625335693359 118.539741516113281 209 197 186
9.01645851135253906 -2.64232110977172852 87.5575485229492188 130 87 78
-10.9387617111206055 1.98247969150543213 87.486114501953125 131 88 79
9.26650142669677734 2.54228353500366211 118.617012023925781 183 164 150
-10.4576807022094727 1.33245408535003662 87.784637451171875 134 90 77
-6.39122390747070312 1.63649022579193115 87.4481430053710938 111 81 75
2.75464081764221191 2.6640927791595459 118.538864135742188 210 197 188
-1.43677175045013428 2.59322023391723633 118.570793151855469 186 173 164
8.69815921783447266 2.68012070655822754 118.612167358398438 187 160 149
-6.97745513916015625 1.48861372470855713 87.5309677124023438 109 75 65
-1.30196857452392578 2.44290733337402344 118.497962951660156 206 196 187
21.0343360900878906 2.81590986251831055 118.5499267578125 204 188 173
11.3652372360229492 2.87607431411743164 118.562660217285156 207 193 182
-21.3702335357666016 1.74633252620697021 118.545341491699219 183 165 153
-7.95259189605712891 1.60397112369537354 87.5652236938476562 128 82 69
-10.1539154052734375 1.03181517124176025 87.6007919311523438 138 104 92
-10.5742931365966797 0.958969414234161377 87.503936767578125 186 163 149
6.70884895324707031 2.99436068534851074 118.541702270507812 213 196 188
13.4844903945922852 2.98836612701416016 118.548492431640625 210 193 183
-8.45651531219482422 1.23080229759216309 87.5075607299804688 174 139 121
9.811920166015625 3.02892041206359863 118.618934631347656 183 166 156
-11.2834444046020508 1.55725407600402832 87.5143280029296875 141 108 99
-2.73076963424682617 3.02827668190002441 118.671035766601562 186 174 160
-10.1204299926757812 0.201043054461479187 87.51678466796875 160 128 117
16.8145122528076172 3.04245686531066895 118.370895385742188 207 189 178
10.1703023910522461 3.07460880279541016 118.524269104003906 209 191 180
7.06411838531494141 -2.36608099937438965 87.5040740966796875 140 101 90
13.3189620971679688 3.16171050071716309 118.560714721679688 180 161 147
-10.6670665740966797 1.81509792804718018 87.5144500732421875 126 83 70
-8.99951076507568359 1.89848053455352783 87.4675064086914062 119 75 62
6.08314752578735352 -2.98063302040100098 87.3643264770507812 167 134 125
16.668243408203125 3.43529319763183594 118.632118225097656 183 164 146
7.76795625686645508 -0.910553216934204102 87.5470733642578125 172 145 134
21.2242279052734375 3.49166488647460938 118.474319458007812 205 188 178
-4.85149288177490234 1.08946740627288818 90.945587158203125 77 47 36
8.23218154907226562 3.51720142364501953 118.551559448242188 210 196 187
10.5193004608154297 3.57465386390686035 118.772262573242188 206 194 182
5.74204015731811523 -3.66581296920776367 87.6998214721679688 164 131 115
-4.81605672836303711 0.26388019323348999 88.142791748046875 145 98 82
23.9333972930908203 3.58013463020324707 119.032478332519531 203 191 177
12.1259927749633789 3.59084725379943848 118.551170349121094 207 194 178
-2.44774675369262695 5.96931076049804688 118.600517272949219 211 201 193
7.53975677490234375 3.62965774536132812 118.499984741210938 211 192 185
5.33653497695922852 -1.80700325965881348 87.7578811645507812 149 101 87
-11.4994220733642578 2.1335146427154541 87.502197265625 139 100 84
-9.70465373992919922 2.79338431358337402 87.5635147094726562 208 177 159
-9.80209255218505859 2.14149999618530273 87.5096893310546875 195 168 152
-4.90660619735717773 2.96061396598815918 117.614158630371094 216 203 189
-6.08677387237548828 2.17099809646606445 87.5155181884765625 154 125 117
12.828338623046875 3.78834772109985352 118.546188354492188 185 160 140
-8.51940536499023438 -0.064426615834236145 87.5395660400390625 169 139 129
-8.07544898986816406 0.116672992706298828 87.4895553588867188 115 88 79
8.3887481689453125 3.81643486022949219 118.688468933105469 205 191 178
11.2402982711791992 3.82588887214660645 118.552452087402344 205 189 176
5.66514730453491211 3.84523677825927734 118.541839599609375 208 194 183
-8.13579845428466797 0.542824923992156982 87.4852066040039062 149 115 108
21.3937664031982422 3.81911396980285645 118.643966674804688 205 193 183
-5.12659072875976562 6.0994110107421875 118.47320556640625 209 199 190
-10.0560455322265625 2.66250944137573242 87.570465087890625 145 113 96
7.53948068618774414 3.62964844703674316 118.49462890625 211 192 185
7.59097099304199219 -1.62342989444732666 87.5315628051757812 133 110 104
12.1259927749633789 3.59084725379943848 118.551170349121094 207 194 178
10.5193004608154297 3.57465386390686035 118.772262573242188 206 194 182
6.0134892463684082 -3.30795907974243164 87.7696533203125 141 108 101
-5.15375185012817383 2.42866206169128418 87.1290130615234375 147 109 100
21.2213630676269531 3.49164891242980957 118.458702087402344 205 188 178
-2.72810888290405273 3.0319821834564209 118.619338989257812 186 174 160
9.26684188842773438 2.54298305511474609 118.620285034179688 183 164 150
5.56913042068481445 -2.15349459648132324 87.4635391235351562 151 107 94
4.2761082649230957 2.49768781661987305 118.560356140136719 209 197 186
4.80894565582275391 -1.01110756397247314 108.910102844238281 188 152 126
-7.96987581253051758 0.895345687866210938 87.4776763916015625 161 127 117
4.8904728889465332 -1.03414809703826904 87.6945571899414062 146 109 98
-4.86128473281860352 2.36987829208374023 94.2771453857421875 72 35 26
-19.8188724517822266 1.91848957538604736 118.506355285644531 206 190 175
14.8550510406494141 0.636135697364807129 118.583145141601562 208 196 185
9.27772617340087891 -0.92942202091217041 87.5348281860351562 185 148 139
4.62334966659545898 0.107533775269985199 118.513656616210938 208 194 181
-11.4143390655517578 1.97490942478179932 87.542205810546875 138 109 91
-7.37399816513061523 -0.225266531109809875 87.5899658203125 185 167 157
10.3511266708374023 -0.980229616165161133 87.5373153686523438 172 136 122
-10.2798366546630859 -0.347829282283782959 87.4653472900390625 113 90 80
6.64682674407958984 -0.990214109420776367 87.5327987670898438 207 189 179
7.20929718017578125 -1.30298864841461182 87.5872116088867188 122 79 70
-4.80866098403930664 1.94558870792388916 91.349365234375 93 60 51
17.5717105865478516 -1.46483504772186279 118.39117431640625 206 193 185
4.78167581558227539 -2.22304129600524902 93.6063232421875 157 102 79
12.8071374893188477 -6.80233192443847656 118.266143798828125 189 177 169
9.89295387268066406 -2.10727119445800781 87.529083251953125 197 183 174
-10.5157089233398438 -0.35631987452507019 87.5839157104492188 113 84 80
5.75936508178710938 -2.9470069408416748 87.5000076293945312 138 99 92
7.17907810211181641 4.48578166961669922 118.660331726074219 209 192 182
19.9252643585205078 -5.16241025924682617 118.56396484375 208 193 183
11.5447807312011719 -1.74522900581359863 87.5075759887695312 185 168 158
5.10104036331176758 2.09651780128479004 118.612083435058594 207 195 183
6.90763330459594727 -3.2712714672088623 87.185028076171875 169 131 122
-8.11277103424072266 2.01270103454589844 87.5244598388671875 198 174 162
-6.59955787658691406 0.337099045515060425 87.6438522338867188 121 93 90
-4.83269357681274414 2.44249439239501953 105.432876586914062 149 119 109
6.27008533477783203 -0.792490124702453613 87.6413421630859375 180 144 130
-11.587794303894043 0.466797053813934326 87.4878921508789062 202 192 180
-10.6705875396728516 0.858140647411346436 87.52960205078125 125 99 88
14.7911605834960938 6.13275766372680664 118.642669677734375 204 190 179
-6.00985956192016602 -0.345090031623840332 87.5867691040039062 205 178 170
-10.8859424591064453 0.864166319370269775 87.48870849609375 199 178 166
-9.71584892272949219 -0.138647302985191345 87.4973983764648438 177 155 146
13.1290187835693359 1.95282375812530518 118.57427978515625 184 166 154
23.3706073760986328 -2.50484585762023926 117.103103637695312 205 192 181
-9.88053035736083984 0.938256502151489258 87.5646820068359375 187 164 151
9.42667198181152344 -1.33512818813323975 87.5062713623046875 86 61 53
-8.48950862884521484 -0.222200363874435425 87.5467910766601562 166 137 129
8.64057254791259766 2.01606440544128418 118.522499084472656 209 192 182
0.477948993444442749 2.04841113090515137 118.429733276367188 185 171 158
-9.1671600341796875 1.03384065628051758 87.5427627563476562 124 86 77
4.75097799301147461 -2.27696871757507324 89.3026885986328125 125 60 41
-9.14392948150634766 1.16014719009399414 87.4882736206054688 182 148 138
13.0997371673583984 -6.80614900588989258 118.394584655761719 207 197 188
-6.83469915390014648 1.22656047344207764 87.5358810424804688 196 173 165
5.62756109237670898 -1.61472094058990479 87.65625 154 116 100
-21.3997116088867188 2.57572317123413086 118.654998779296875 205 188 178
-8.11182689666748047 2.01285433769226074 87.51422119140625 198 174 162
-4.82869434356689453 1.13879108428955078 113.845344543457031 88 41 27
4.80004549026489258 -2.83087491989135742 101.867019653320312 124 78 62
21.9006519317626953 2.5583193302154541 118.340736389160156 183 166 155
-20.8712139129638672 2.61753702163696289 118.666778564453125 205 195 185
-9.06673049926757812 1.36661052703857422 87.4750900268554688 152 116 105
-10.5694351196289062 2.24190020561218262 87.5733413696289062 175 143 130
-8.83960437774658203 1.38145565986633301 87.4693222045898438 125 82 75
4.84547185897827148 -1.91227078437805176 97.078887939453125 134 77 60
-5.01653575897216797 1.49641251564025879 87.505889892578125 193 159 149
9.31805229187011719 -0.754362761974334717 87.5960540771484375 129 88 76
-10.3807458877563477 1.62662291526794434 87.5289993286132812 125 88 72
-9.27672863006591797 1.61964702606201172 87.5296401977539062 121 87 77
-10.46722412109375 2.4065101146697998 87.5067596435546875 137 95 79
8.61292934417724609 -1.48370826244354248 87.5609283447265625 170 136 124
-6.32475423812866211 1.62494790554046631 87.4607315063476562 112 80 75
-9.07817649841308594 1.63736176490783691 87.5041427612304688 189 155 145
11.1539497375488281 3.00440669059753418 118.568168640136719 189 167 153
7.67612361907958984 -4.0087742805480957 87.3821487426757812 207 194 186
6.56469249725341797 -3.78803610801696777 87.7321701049804688 141 95 80
-10.8291358947753906 -0.284740537405014038 87.9281005859375 203 191 184
-10.5609779357910156 1.66835892200469971 87.4795761108398438 166 124 110
7.61747407913208008 -1.47671735286712646 87.538299560546875 122 105 99
-3.04622483253479004 3.02784442901611328 118.609657287597656 208 199 187
-10.1369104385375977 0.389637291431427002 87.5210494995117188 123 88 82
-6.50882482528686523 1.70632314682006836 87.5229339599609375 181 153 146
-4.99805974960327148 2.52852034568786621 87.5079803466796875 159 117 110
-8.15446376800537109 1.73586559295654297 87.4929580688476562 138 96 80
18.409698486328125 -3.10796880722045898 118.529365539550781 205 192 181
-8.81303882598876953 1.79180312156677246 87.520416259765625 200 169 157
6.30070400238037109 -1.1035313606262207 87.5467910766601562 143 96 84
-4.81547641754150391 1.55382835865020752 99.062896728515625 174 133 115
11.0679044723510742 3.19635820388793945 118.641387939453125 206 189 173
20.0944061279296875 3.38013792037963867 118.614089965820312 180 161 150
21.2995758056640625 -0.656712830066680908 118.599311828613281 209 196 187
4.8417363166809082 -6.84823274612426758 117.891914367675781 208 195 186
-11.1710977554321289 1.95243382453918457 87.496612548828125 140 105 89
6.30270528793334961 -1.10317075252532959 87.5674057006835938 143 96 84
9.75597095489501953 -2.97648072242736816 87.4707717895507812 174 136 127
-6.76975440979003906 2.02459549903869629 87.5201187133789062 104 70 68
1.97229635715484619 4.77518033981323242 118.568046569824219 189 174 159
-5.76372861862182617 2.04167628288269043 87.46917724609375 165 145 136
-11.252532958984375 2.11911582946777344 87.515869140625 164 132 119
4.80545759201049805 -3.42233395576477051 88.9302215576171875 97 53 36
7.24633455276489258 3.7010037899017334 118.592887878417969 184 166 152
1.09370815753936768 -2.69687891006469727 118.30810546875 211 201 192
8.10057640075683594 3.72176861763000488 118.634010314941406 176 158 148
4.81716537475585938 -1.88405704498291016 91.6368637084960938 135 62 45
9.11871242523193359 -0.752311050891876221 87.59771728515625 124 82 71
5.42857027053833008 3.73702502250671387 118.641242980957031 187 170 160
12.7897481918334961 -7.05585289001464844 118.576896667480469 209 197 188
-9.04587364196777344 2.23399734497070312 87.521484375 195 164 144
-23.4358329772949219 3.8648984432220459 118.588760375976562 181 164 157
-4.90735244750976562 1.37796294689178467 87.7902069091796875 140 102 93
7.81374454498291016 2.94927406311035156 118.676490783691406 210 192 180
8.50950336456298828 0.743839383125305176 118.499382019042969 209 196 185
9.30316829681396484 -1.47266542911529541 87.51336669921875 202 175 164
-8.16268062591552734 0.808896183967590332 87.4639739990234375 120 81 74
8.03168773651123047 -3.98732948303222656 87.6517257690429688 200 181 175
4.99534034729003906 -2.42889165878295898 87.5651931762695312 139 92 78
-21.5478096008300781 -5.85576725006103516 118.520339965820312 204 195 186
5.88733434677124023 -4.0092768669128418 87.6772689819335938 205 189 176
-23.9980754852294922 0.646464109420776367 118.710380554199219 183 169 160
-11.1423702239990234 0.606775462627410889 87.4586410522460938 190 158 147
6.24202871322631836 0.650204122066497803 118.465171813964844 187 165 151
-5.18384838104248047 0.813353419303894043 87.532470703125 116 76 73
12.9044656753540039 4.13714361190795898 118.717384338378906 184 163 146
7.04791688919067383 -0.869346201419830322 87.5887832641601562 175 138 129
8.09717178344726562 3.72039651870727539 118.586151123046875 176 158 148
7.24633455276489258 3.7010037899017334 118.592887878417969 184 166 152
6.68561220169067383 -3.89313840866088867 87.2137527465820312 180 142 133
4.8173069953918457 -1.31621301174163818 101.41815185546875 147 97 76
-6.76975440979003906 2.02459549903869629 87.5201187133789062 104 70 68
20.0939044952392578 3.38006424903869629 118.610923767089844 180 161 150
-10.5603351593017578 1.66833305358886719 87.4747848510742188 166 124 110
13.7567920684814453 5.92934989929199219 118.162162780761719 205 187 173
-8.83960437774658203 1.38145565986633301 87.4693222045898438 125 82 75
4.139068603515625 -4.29296970367431641 118.486495971679688 212 202 192
-9.07302570343017578 1.36779642105102539 87.4987106323242188 152 116 105
-11.019073486328125 1.9786301851272583 87.481964111328125 160 115 109
-9.06737327575683594 1.36631202697753906 87.487640380859375 152 116 105
9.26272678375244141 0.645529687404632568 118.184181213378906 182 166 153
0.478050142526626587 2.05012822151184082 118.41064453125 185 171 158
-6.37682867050170898 2.08365011215209961 87.4650344848632812 118 77 71
-4.83094167709350586 2.24964118003845215 100.282371520996094 178 152 139
13.1255521774291992 1.95295476913452148 118.541580200195312 184 166 154
-23.9980754852294922 0.646464109420776367 118.710380554199219 183 169 160
-23.6487712860107422 -0.077313154935836792 118.505226135253906 184 170 161
-4.88879299163818359 1.25625073909759521 105.549468994140625 166 141 128
-6.48375320434570312 -1.01214563846588135 118.441421508789062 190 176 167
-21.7169361114501953 1.02229464054107666 118.496177673339844 204 190 179
9.36556720733642578 -3.79951572418212891 87.6015090942382812 122 78 69
4.93570756912231445 -2.71297192573547363 87.443634033203125 177 128 106
8.22467041015625 -3.85164546966552734 87.3658523559570312 201 180 163
5.5143733024597168 -3.88217711448669434 87.5669708251953125 205 186 170
5.83915424346923828 -1.03585505485534668 87.504302978515625 199 187 176
10.5170516967773438 -1.2685006856918335 87.8248138427734375 116 74 60
-6.57765293121337891 -5.55020380020141602 118.624946594238281 210 196 187
-6.56490468978881836 -5.54053497314453125 118.396324157714844 210 196 187
-21.5393314361572266 -5.85392236709594727 118.476448059082031 204 195 186
-1.28903687000274658 2.04890036582946777 118.513435363769531 212 199 190
5.1791834831237793 -3.89142489433288574 87.6540756225585938 162 96 82
8.50918769836425781 0.745388567447662354 118.500572204589844 209 196 185
-4.77051210403442383 0.853803157806396484 101.2012939453125 96 52 41
-23.6489715576171875 -0.0773860961198806763 118.5062255859375 184 170 161
11.3611183166503906 -1.40711092948913574 87.5268020629882812 190 180 171
7.55500984191894531 -2.29062223434448242 87.3527145385742188 125 98 93
-5.86082744598388672 0.916093230247497559 87.4818191528320312 101 72 64
4.87903118133544922 -1.82867240905761719 87.6025924682617188 210 187 175
5.24324607849121094 -2.00033950805664062 87.6231307983398438 195 157 146
-17.7709579467773438 -6.36759805679321289 118.672622680664062 204 194 192
10.2964019775390625 -2.25618743896484375 87.4978713989257812 106 77 69
11.514404296875 -2.78009867668151855 87.511749267578125 90 66 61
15.3600530624389648 -6.29624462127685547 118.454841613769531 207 198 187
10.3049345016479492 -3.24339938163757324 87.5891036987304688 142 102 90
6.73774385452270508 -2.16031146049499512 87.5100326538085938 204 178 164
19.2417659759521484 -3.85124683380126953 118.571739196777344 207 192 181
18.4165000915527344 -4.05922079086303711 118.558113098144531 190 172 164
16.6669540405273438 -4.31335020065307617 118.502784729003906 184 164 155
12.0247907638549805 -6.09696435928344727 118.504119873046875 185 169 156
8.30147838592529297 -3.88424086570739746 88.2066802978515625 201 180 163
-9.10768985748291016 0.416991084814071655 87.6257553100585938 116 81 69
-4.95640277862548828 2.80689382553100586 117.285171508789062 98 49 44
-7.54207038879394531 0.408723026514053345 87.5123138427734375 183 157 144
-11.2789154052734375 0.449595659971237183 87.4806289672851562 164 132 121
-5.37694644927978516 0.47161749005317688 87.5161590576171875 98 64 62
-8.88207530975341797 -0.0599392317235469818 87.5280838012695312 174 144 136
-10.9000158309936523 0.473834693431854248 87.5157623291015625 189 173 160
2.54329514503479004 -4.89462900161743164 118.617225646972656 210 193 183
-8.03569316864013672 0.492623627185821533 87.5024642944335938 104 78 68
-7.90254068374633789 0.533832252025604248 87.4898452758789062 157 118 103
-6.63099527359008789 0.59966576099395752 87.5753250122070312 150 136 128
-10.0856380462646484 1.2827906608581543 87.5665359497070312 132 97 78
-9.07631111145019531 0.67803192138671875 87.492645263671875 121 83 72
11.4537897109985352 5.09348583221435547 118.847915649414062 208 191 181
-9.35342884063720703 0.188034534454345703 87.515899658203125 120 85 73
-7.41954708099365234 0.813323140144348145 87.4911041259765625 153 128 119
-7.25746059417724609 0.82552105188369751 87.5023040771484375 112 79 72
-7.00849294662475586 1.63184154033660889 87.55938720703125 149 112 103
6.12293672561645508 -0.769180238246917725 87.595489501953125 122 88 76
-8.72063827514648438 0.864524602890014648 87.5343399047851562 124 82 75
-8.31427764892578125 2.46482419967651367 86.9036636352539062 132 84 70
-9.31379413604736328 0.936586380004882812 87.5204544067382812 122 85 76
-7.28874301910400391 0.9352913498878479 87.504547119140625 117 87 80
-10.7719135284423828 0.950480043888092041 87.4976882934570312 130 101 91
7.41830539703369141 -3.37700510025024414 87.5285568237304688 164 124 109
-11.1760568618774414 1.02674877643585205 87.4976959228515625 199 170 159
-8.43834495544433594 1.02008461952209473 87.4956741333007812 127 87 77
5.93414974212646484 -0.855264902114868164 87.5751190185546875 189 162 155
-5.98924493789672852 1.09044134616851807 87.5155029296875 175 144 141
-10.5042629241943359 1.1487727165222168 87.494232177734375 168 136 124
19.2614593505859375 -5.41291189193725586 118.611137390136719 186 170 157
4.61913537979125977 -1.71502852439880371 117.334678649902344 197 175 161
-5.44807338714599609 1.16165685653686523 87.5354537963867188 109 74 70
-5.3637847900390625 0.840466320514678955 87.5668869018554688 109 71 68
-5.1759033203125 -0.328245848417282104 87.5281524658203125 136 88 74
-9.4032745361328125 1.21028316020965576 87.5392227172851562 130 96 84
-8.61946773529052734 1.26883232593536377 87.8352203369140625 164 123 111
-7.37237215042114258 1.2292027473449707 87.4683914184570312 110 78 70
5.66480731964111328 -3.24859881401062012 87.7761306762695312 144 100 87
5.91664505004882812 -3.15070772171020508 87.7558517456054688 133 92 86
-9.15026378631591797 1.2936861515045166 87.5177841186523438 123 87 75
-6.68189144134521484 1.29342806339263916 87.5102157592773438 95 70 65
-5.35453701019287109 0.839026749134063721 87.4700851440429688 109 71 68
-9.45427036285400391 1.31021451950073242 87.5139999389648438 160 127 112
-10.4799594879150391 1.48012101650238037 87.5229721069335938 125 86 71
-10.974299430847168 -0.147684544324874878 87.5496368408203125 131 90 84
-11.3620586395263672 1.34462666511535645 87.5291671752929688 126 88 77
-6.37685489654541016 2.08371210098266602 87.4658432006835938 118 77 71
-11.0943565368652344 1.41867208480834961 87.5048370361328125 129 94 85
10.4849691390991211 -3.92545890808105469 87.6280288696289062 158 121 113
-9.00768756866455078 1.49427211284637451 87.4741134643554688 119 81 70
-4.84132814407348633 2.26940393447875977 103.870048522949219 152 108 97
-5.74827098846435547 1.49046361446380615 87.4880218505859375 201 181 175
-7.46605157852172852 1.55679059028625488 87.5168609619140625 155 127 122
18.8705520629882812 -6.27900075912475586 118.551597595214844 208 195 185
7.9188990592956543 -1.06658351421356201 87.5543060302734375 201 174 164
-5.41632843017578125 1.57979416847229004 87.5699996948242188 107 74 69
9.04776191711425781 -0.783484816551208496 87.586883544921875 130 92 81
-5.55727672576904297 1.63637161254882812 87.5114059448242188 166 138 131
-8.94113636016845703 1.70164990425109863 87.5295562744140625 128 94 82
-7.89807224273681641 -5.61026239395141602 118.456123352050781 209 196 188
7.95315170288085938 -1.27086269855499268 87.5224990844726562 145 106 101
-5.16714096069335938 1.71628034114837646 87.506927490234375 175 138 129
6.9608464241027832 -0.767236232757568359 87.5419692993164062 124 92 81
-11.6602897644042969 1.84026205539703369 87.5005722045898438 193 175 163
-6.37919378280639648 1.84262406826019287 87.502838134765625 169 134 129
-11.3426151275634766 1.9049077033996582 87.5233230590820312 201 187 171
-7.4585576057434082 0.126710668206214905 87.5053176879882812 154 125 117
-10.0720386505126953 1.91244626045227051 87.5988311767578125 141 102 87
18.4456634521484375 0.524092912673950195 118.915275573730469 205 192 183
-9.48893356323242188 1.92386972904205322 87.5254592895507812 137 94 78
6.22894382476806641 -0.860776126384735107 87.6409530639648438 149 112 97
-8.72301387786865234 1.9354560375213623 87.4671249389648438 134 88 73
-9.62683582305908203 1.97979557514190674 87.4876556396484375 194 161 144
-21.8763275146484375 -6.35489702224731445 117.982391357421875 205 191 184
-17.7648792266845703 -6.36700582504272461 118.630531311035156 204 194 192
-6.5983881950378418 1.97941780090332031 87.51812744140625 200 170 162
-6.35807943344116211 -0.347950756549835205 87.59490966796875 95 65 59
-9.13930606842041016 1.99342918395996094 87.5215606689453125 174 139 120
