ply
format ascii 1.0
element vertex 657
property float x
property float y
property float z
property uchar red
property uchar green
property uchar blue
end_header
1.69127428531646729 -4.08609151840209961 58.9051856994628906 154 144 132
-2.55873847007751465 -1.47619724273681641 64.6786422729492188 149 139 130
-2.9483792781829834 -2.4737095832824707 64.0304031372070312 162 156 145
4.60533523559570312 0.401020020246505737 58.6655044555664062 157 155 143
5.16831398010253906 -2.4565894603729248 57.4171218872070312 138 125 109
1.57752048969268799 -1.40246391296386719 59.5148124694824219 132 115 96
2.33062577247619629 -2.80322456359863281 59.3863983154296875 164 174 176
5.66674184799194336 0.524721324443817139 57.7870750427246094 133 118 95
2.83585715293884277 -3.29321002960205078 58.9234886169433594 156 152 143
-2.97911739349365234 -2.46638131141662598 63.1174964904785156 159 152 142
2.95534801483154297 -1.83180141448974609 58.8570709228515625 80 97 114
-0.725793600082397461 -3.90551495552062988 61.6693687438964844 148 132 116
0.943087756633758545 1.83871269226074219 61.4657554626464844 158 141 126
-3.31161069869995117 0.536014556884765625 65.4694671630859375 157 189 215
-4.28077983856201172 -0.298534780740737915 64.5449371337890625 156 145 133
3.10714507102966309 -1.76170730590820312 58.70147705078125 60 68 73
4.03525924682617188 -2.32909131050109863 58.1517181396484375 162 154 143
2.4286043643951416 -2.66418361663818359 59.2187614440917969 178 177 183
-3.95806741714477539 -1.60144972801208496 64.1141357421875 234 254 255
-3.61380577087402344 -1.62686800956726074 64.2019577026367188 131 159 181
-3.3612968921661377 0.197538167238235474 64.2525405883789062 54 58 84
-3.12559652328491211 -1.46056115627288818 64.1878662109375 195 220 245
-2.69514870643615723 0.700780868530273438 64.2527923583984375 210 229 220
-3.59111857414245605 -0.550147354602813721 63.5190582275390625 28 49 94
-2.14992737770080566 -2.21064472198486328 63.5939712524414062 140 132 119
-3.25211524963378906 0.517244398593902588 64.142669677734375 159 192 211
5.07495546340942383 -2.43442392349243164 56.0276565551757812 144 129 108
-0.260193467140197754 0.866964519023895264 62.3340072631835938 172 158 144
-3.08155655860900879 0.766899943351745605 64.1258544921875 103 121 147
1.03933215141296387 -2.97188186645507812 59.5135650634765625 112 140 162
2.38871455192565918 -4.07898712158203125 59.3984603881835938 142 123 109
3.08120012283325195 -1.75939452648162842 58.8533935546875 184 198 214
3.81546854972839355 -2.92205524444580078 57.8502388000488281 165 153 140
-3.99365997314453125 -1.62580335140228271 64.460296630859375 157 185 195
-6.27330446243286133 -1.56667101383209229 66.438262939453125 0 0 0
-3.34081554412841797 -1.54712164402008057 64.1413040161132812 151 179 201
-3.29441976547241211 -1.4327322244644165 64.3662567138671875 90 107 125
2.76956915855407715 -1.5136408805847168 58.8589706420898438 191 222 243
0.165400415658950806 1.76060855388641357 62.0177879333496094 163 148 128
-2.76898574829101562 -1.42095339298248291 63.7842826843261719 37 34 46
-3.75257182121276855 0.692943155765533447 64.2909622192382812 232 255 255
2.28102922439575195 -1.00536215305328369 59.3179092407226562 127 157 181
-2.97792458534240723 0.569637060165405273 64.2166595458984375 160 195 214
1.43304085731506348 -3.20774245262145996 59.2177543640136719 123 151 173
0.858685553073883057 -2.75103545188903809 59.341888427734375 221 243 255
2.57314562797546387 1.02430868148803711 60.1593360900878906 152 136 120
-2.79603314399719238 -3.85067915916442871 63.5455245971679688 165 156 151
5.49384880065917969 -0.179676994681358337 57.6658821105957031 151 146 127
-3.12282776832580566 -1.54230237007141113 64.4248809814453125 141 173 190
2.60336208343505859 -1.1835402250289917 59.0025749206542969 206 234 244
-3.59028029441833496 -1.39274358749389648 64.3060531616210938 70 77 88
-4.02721738815307617 -1.72812902927398682 64.2998733520507812 183 211 220
1.28527450561523438 -0.862603902816772461 60.8649673461914062 160 146 133
-1.71337580680847168 -0.519544422626495361 63.5047416687011719 165 158 147
2.60814857482910156 1.34999322891235352 60.3019332885742188 168 161 143
-3.00742459297180176 -0.376005500555038452 64.1006393432617188 41 46 25
-3.26791691780090332 0.43794819712638855 64.4642791748046875 180 216 240
1.15510118007659912 -2.10622501373291016 59.346038818359375 191 211 238
2.35947322845458984 -0.952781021595001221 58.9705047607421875 224 243 248
1.21399343013763428 -3.07811570167541504 59.2344017028808594 147 185 208
-3.00550651550292969 -1.83016383647918701 64.4239425659179688 207 238 255
-2.97309374809265137 -1.76077592372894287 63.9260025024414062 145 179 204
-0.174210697412490845 -0.40237852931022644 61.5621376037597656 150 138 122
-3.85018825531005859 -1.24266183376312256 64.0439224243164062 43 50 73
-3.33629155158996582 -1.47766387462615967 64.3640060424804688 191 213 232
1.83387279510498047 -1.30798244476318359 59.0966224670410156 181 206 230
4.81665802001953125 -3.55336284637451172 57.6875114440917969 158 149 140
-3.81755781173706055 0.463998347520828247 64.3629379272460938 81 103 154
-3.40964221954345703 -1.48093819618225098 64.3995361328125 141 168 184
-2.60185742378234863 0.304284334182739258 64.3069000244140625 129 116 104
-2.78467702865600586 0.342628806829452515 64.3484878540039062 81 87 89
-3.12412333488464355 -1.69068717956542969 64.1253204345703125 160 179 187
3.07204198837280273 -1.67621469497680664 59.18658447265625 163 195 213
0.759180784225463867 -2.79613375663757324 59.4174880981445312 188 207 224
3.06989288330078125 -0.351190835237503052 58.4008674621582031 99 91 82
-4.02239513397216797 -1.72508299350738525 64.2189254760742188 166 199 201
2.58894038200378418 -1.29124867916107178 58.8359947204589844 150 174 205
4.16503000259399414 -2.96703910827636719 57.154022216796875 154 150 138
0.114586904644966125 -2.25418496131896973 61.1257057189941406 162 148 135
2.88075637817382812 -1.55442714691162109 58.86041259765625 215 245 255
-4.09938287734985352 -1.8413010835647583 64.2294692993164062 95 83 86
-4.09162187576293945 -1.36647868156433105 64.1979598999023438 50 54 61
-2.46383142471313477 -2.42331457138061523 63.66571044921875 134 124 112
-2.92285490036010742 0.785527229309082031 64.2905960083007812 74 84 105
2.30901741981506348 0.939862549304962158 59.8862533569335938 169 160 143
-1.38016366958618164 -0.321341037750244141 62.8608512878417969 165 161 150
5.09780597686767578 -3.9502408504486084 57.1385688781738281 157 151 139
-1.13049447536468506 -0.353752255439758301 62.5982017517089844 167 161 147
-5.68046903610229492 -0.582709848880767822 65.9918670654296875 0 0 0
0.421833455562591553 -0.0880603939294815063 61.5696945190429688 173 159 148
2.16082525253295898 0.0957270413637161255 59.7523841857910156 157 147 135
-3.49464178085327148 -3.57990741729736328 63.8001632690429688 159 158 153
2.16082525253295898 0.0957270413637161255 59.7523841857910156 157 147 135
4.00813817977905273 0.27405896782875061 58.6038742065429688 163 155 142
4.07090997695922852 -1.34340286254882812 58.24945068359375 155 154 142
0.230958953499794006 0.445434123277664185 61.9842796325683594 168 165 147
1.69595193862915039 0.671885907649993896 60.6667022705078125 144 131 112
-3.96672654151916504 -0.0182689744979143143 64.42584228515625 123 138 159
2.22270798683166504 -1.16567397117614746 59.0524635314941406 102 128 151
-2.90702366828918457 -3.08366513252258301 62.4315910339355469 157 154 141
4.95763492584228516 -2.61710882186889648 57.8776512145996094 156 147 138
4.95183610916137695 -2.6147308349609375 57.8326225280761719 156 147 138
1.25646781921386719 -1.1439896821975708 60.3125 162 153 149
-4.11668920516967773 -0.313527792692184448 63.8542633056640625 139 115 91
2.53272199630737305 -2.58754158020019531 59.2182426452636719 115 102 93
-1.92287659645080566 -0.277027338743209839 63.6525115966796875 161 153 140
2.03658938407897949 -3.11701369285583496 59.2192115783691406 144 157 166
1.94167757034301758 -0.314065307378768921 60.04241943359375 156 147 136
3.47392678260803223 -0.270552486181259155 59.0686378479003906 139 123 107
5.06707000732421875 -0.0774912610650062561 58.1742401123046875 151 145 129
-3.00783205032348633 0.554199337959289551 64.255218505859375 184 205 222
-2.48896908760070801 -2.6838233470916748 63.1492233276367188 160 152 141
-3.03495931625366211 -1.43055009841918945 63.887481689453125 63 88 117
4.56607818603515625 -1.36833012104034424 57.8511810302734375 145 147 134
3.13385176658630371 -1.73087882995605469 58.9192428588867188 166 174 193
-1.25791561603546143 1.47942733764648438 63.3413810729980469 155 137 117
-2.3204033374786377 1.79550933837890625 63.901702880859375 148 135 118
-2.31189727783203125 1.78212213516235352 63.7417640686035156 148 135 118
0.810971379280090332 -4.12284994125366211 60.0188560485839844 159 147 135
-0.860523819923400879 -1.50085556507110596 61.4828033447265625 170 162 151
0.333269298076629639 -0.835680007934570312 61.8157157897949219 144 132 118
-2.50325441360473633 0.028859483078122139 63.8281440734863281 139 126 109
-3.84018778800964355 0.342702984809875488 64.2876052856445312 79 81 90
-3.14364409446716309 0.273307323455810547 64.3373031616210938 64 71 69
3.21915936470031738 0.728271782398223877 59.7344131469726562 163 154 137
3.17725491523742676 0.725442469120025635 59.2631568908691406 163 154 137
-4.46070528030395508 0.661073267459869385 64.9964599609375 163 154 137
4.52451467514038086 1.42833161354064941 58.4306449890136719 157 151 135
-2.45105576515197754 -3.89871001243591309 63.7317352294921875 143 135 122
-3.33063006401062012 -1.71379959583282471 64.3871307373046875 188 215 233
1.17726993560791016 -3.19605445861816406 59.3311996459960938 89 100 130
5.17996978759765625 0.693957388401031494 58.5053329467773438 148 148 136
3.10531139373779297 -2.00406169891357422 58.5475807189941406 133 117 99
-2.51412296295166016 -0.77856522798538208 63.5818443298339844 140 122 108
-3.33344721794128418 -1.86577332019805908 63.6027336120605469 77 85 103
-2.64886999130249023 -1.88668596744537354 63.6906547546386719 0 0 0
-2.67271208763122559 0.446411192417144775 63.9738426208496094 238 255 252
-3.69569039344787598 -1.56656515598297119 64.3216323852539062 244 254 255
1.47404360771179199 -3.22387909889221191 59.2197265625 125 155 179
-0.867063939571380615 -3.56470489501953125 62.468505859375 162 155 142
-3.23962640762329102 -1.49080812931060791 63.86334228515625 228 254 255
3.20357251167297363 0.271843075752258301 59.5011558532714844 162 153 138
-3.77103233337402344 -1.51197612285614014 64.20050048828125 213 244 249
-4.08595943450927734 -1.25844109058380127 64.3522720336914062 39 34 30
-3.20389652252197266 -1.56744241714477539 64.140625 170 198 222
5.6638331413269043 1.30071794986724854 57.6138839721679688 148 145 136
3.77897429466247559 0.881217837333679199 58.5091552734375 165 160 146
-3.02576017379760742 -1.34789359569549561 64.3798828125 40 54 85
4.99568367004394531 -1.73238992691040039 57.6543159484863281 110 107 99
-3.65376496315002441 -0.165416598320007324 64.13665771484375 51 60 59
2.9337916374206543 -1.99699902534484863 58.9388198852539062 163 176 186
-0.25012129545211792 -1.1753849983215332 61.4779777526855469 159 155 143
-3.98134684562683105 0.807127118110656738 64.453155517578125 79 104 153
-3.08962106704711914 0.527171611785888672 64.2716140747070312 206 238 255
-2.76216459274291992 0.662874579429626465 64.3310928344726562 143 173 179
-0.140933230519294739 -4.21651935577392578 62.2345161437988281 172 164 156
-4.10301303863525391 -1.58575522899627686 64.0814361572265625 199 234 255
3.10437154769897461 -1.6034775972366333 58.8129310607910156 210 212 224
-2.69090580940246582 0.407253414392471313 64.4010467529296875 195 205 203
-3.92196202278137207 -0.15205848217010498 64.1413726806640625 87 89 101
-3.67676305770874023 0.405055463314056396 64.2713851928710938 239 255 255
1.27893722057342529 -3.05972909927368164 59.1293907165527344 107 134 155
-3.62349414825439453 0.368850201368331909 64.295867919921875 76 91 111
1.88608837127685547 -2.23290133476257324 59.0771026611328125 142 168 182
-3.12439775466918945 -1.75009024143218994 64.1952133178710938 122 154 174
1.29976260662078857 -1.89375448226928711 59.2832984924316406 107 105 108
2.81872129440307617 -1.67708873748779297 58.9216804504394531 214 243 255
-3.22335958480834961 -1.69009125232696533 64.0362701416015625 99 135 153
0.828666567802429199 -0.175487533211708069 61.1649055480957031 148 136 120
-3.27553296089172363 -1.68337416648864746 64.0570220947265625 231 255 255
4.05691051483154297 -0.333572030067443848 58.8216209411621094 162 156 144
-2.9983670711517334 0.658802211284637451 64.2238540649414062 184 209 222
1.26798057556152344 0.473799228668212891 60.3384323120117188 173 164 148
4.02292633056640625 -1.42056131362915039 58.3837852478027344 185 174 156
-3.24709057807922363 -1.46361339092254639 64.1714859008789062 225 252 255
-0.57795792818069458 1.42547905445098877 62.3435554504394531 169 156 137
-4.03728675842285156 -1.28205657005310059 64.2995071411132812 31 41 62
-0.640014290809631348 1.32019925117492676 62.2779693603515625 154 130 111
0.973381519317626953 -2.26607155799865723 59.5920219421386719 122 114 129
3.13659167289733887 -1.45952868461608887 58.822296142578125 155 147 131
-3.42002153396606445 -1.40867757797241211 64.3657150268554688 35 42 58
-3.24289870262145996 0.314162284135818481 64.0391693115234375 75 90 111
0.555102765560150146 -0.930216670036315918 61.5392684936523438 170 166 154
-3.76094388961791992 -1.36980938911437988 64.484039306640625 113 126 141
-3.4076695442199707 -1.84820282459259033 64.1525115966796875 65 77 99
1.5495682954788208 0.669145524501800537 60.606781005859375 170 159 141
-2.85321664810180664 0.161037087440490723 64.4231185913085938 234 244 218
-3.11007380485534668 -1.58049941062927246 64.2406845092773438 201 234 247
1.23157703876495361 0.604604542255401611 61.0614547729492188 145 130 107
2.20447945594787598 -3.40495181083679199 58.7836799621582031 161 145 135
-2.7106926441192627 1.28400814533233643 64.008880615234375 174 165 157
2.5496826171875 -1.23952913284301758 58.6321487426757812 165 204 224
2.45736265182495117 -3.90173125267028809 58.369842529296875 138 126 112
-4.70572137832641602 -0.713832437992095947 64.7160415649414062 153 146 133
-3.69878292083740234 -0.583444893360137939 63.1418342590332031 248 255 255
-3.3284919261932373 -2.93447995185852051 63.8298988342285156 147 136 127
-2.15186977386474609 -2.19886946678161621 63.6124267578125 141 129 117
2.0336000919342041 -0.5485573410987854 59.714599609375 156 150 136
4.07609272003173828 -2.12329339981079102 57.9865150451660156 142 130 118
4.09520101547241211 -2.12079334259033203 58.3628273010253906 142 130 118
2.54577374458312988 -1.24095058441162109 59.2806320190429688 142 168 180
3.13919496536254883 -0.265096008777618408 59.6280097961425781 156 148 135
-3.90584254264831543 -0.163462311029434204 63.8354759216308594 58 59 67
-4.20713329315185547 -0.301185965538024902 64.6030426025390625 140 118 95
3.32068943977355957 -0.312201440334320068 59.22576904296875 136 122 96
-3.69089055061340332 0.629305005073547363 64.232421875 217 245 254
2.7201993465423584 -1.48915600776672363 58.4605751037597656 144 179 201
1.4576035737991333 -3.23718404769897461 59.2217369079589844 220 250 254
1.90915191173553467 -3.33374166488647461 58.7756729125976562 154 136 124
-2.78192925453186035 -2.01198625564575195 63.1032981872558594 132 121 107
-4.116241455078125 -1.81458032131195068 64.4803695678710938 77 76 90
-2.67922282218933105 0.186112836003303528 64.207794189453125 37 41 52
1.24413573741912842 0.0889977365732192993 60.8028678894042969 172 164 153
2.79297900199890137 -1.51414752006530762 59.3362846374511719 143 167 204
1.10477983951568604 -3.04802417755126953 59.2975959777832031 163 193 222
-3.58847427368164062 0.799677431583404541 64.3346099853515625 116 144 178
-3.64793848991394043 -1.69833099842071533 64.1097946166992188 183 221 234
-3.50816679000854492 -3.26210641860961914 62.9350509643554688 166 167 163
1.20447230339050293 -3.21143937110900879 59.4345932006835938 235 255 255
-2.82566380500793457 -1.71680831909179688 64.41094970703125 182 198 195
-3.20561504364013672 0.205172419548034668 64.3924942016601562 85 100 112
2.9414818286895752 -1.78523969650268555 58.5176620483398438 198 226 247
2.55429506301879883 -1.14359736442565918 58.9843635559082031 230 255 255
3.02821707725524902 -1.60259783267974854 58.9075584411621094 175 196 218
2.58337974548339844 -1.10148966312408447 59.3328742980957031 84 100 93
-3.12984251976013184 -0.437121480703353882 64.3997802734375 39 65 100
-3.68879079818725586 0.572158515453338623 64.3531036376953125 228 255 255
-3.16962432861328125 0.331179291009902954 64.2912673950195312 96 117 127
-3.20199489593505859 0.0676906406879425049 64.2352981567382812 223 237 250
-3.53159618377685547 0.578245460987091064 64.3628311157226562 209 241 254
1.25433671474456787 0.475381642580032349 60.1693153381347656 165 162 146
-2.97896528244018555 -1.50819003582000732 64.3199005126953125 156 170 178
2.76890301704406738 -1.55679130554199219 58.956695556640625 138 174 190
5.73876476287841797 -1.32090067863464355 57.2165031433105469 156 147 130
5.21691989898681641 -1.82218146324157715 57.96893310546875 140 133 117
3.07134628295898438 -1.63159680366516113 59.1789207458496094 144 176 197
-4.49666070938110352 -0.0941397249698638916 65.4590301513671875 156 148 137
-3.13786602020263672 -1.62444221973419189 64.274017333984375 173 192 209
2.39185953140258789 1.91422569751739502 59.8589706420898438 170 169 149
1.31899082660675049 -1.85637450218200684 59.2107582092285156 131 117 114
1.5091625452041626 -3.31501173973083496 59.2512130737304688 206 231 238
4.66854238510131836 1.25156641006469727 58.7840232849121094 137 128 111
-2.67896032333374023 0.164016872644424438 64.072357177734375 169 170 176
1.00446295738220215 -2.92527675628662109 59.2588310241699219 75 89 109
4.67218971252441406 1.25199377536773682 58.7876167297363281 137 128 111
-2.90197610855102539 0.733746886253356934 64.3076553344726562 112 139 168
2.9197230339050293 -3.17781233787536621 59.2818565368652344 157 148 142
-3.25772261619567871 0.231590986251831055 64.2005615234375 217 253 255
-1.63112378120422363 -2.77976012229919434 63.3627471923828125 171 164 148
4.09802818298339844 -2.49128437042236328 57.8350677490234375 143 131 115
-3.02426576614379883 0.198369011282920837 64.362884521484375 245 255 255
1.48540031909942627 -1.10676896572113037 60.0699119567871094 157 149 138
-1.63341784477233887 -2.75242853164672852 63.0324935913085938 167 162 156
-1.84885025024414062 -3.0812528133392334 63.0179710388183594 145 135 124
-1.84885025024414062 -3.0812528133392334 63.0179710388183594 145 135 124
-3.74572134017944336 -1.28801953792572021 64.3280410766601562 244 255 255
5.83921003341674805 -1.88281965255737305 58.4181785583496094 153 145 134
-2.98604822158813477 -1.77470433712005615 64.2581863403320312 136 168 191
2.91742992401123047 1.26425266265869141 59.852996826171875 160 158 145
-1.59494185447692871 -1.6994863748550415 62.98602294921875 144 136 116
-2.66538453102111816 -1.44240653514862061 64.0161514282226562 120 111 96
-2.10193324089050293 -1.06883585453033447 63.378326416015625 135 123 109
4.06061315536499023 -1.52196919918060303 58.0810623168945312 142 130 118
-2.72329163551330566 0.189922437071800232 64.0118179321289062 188 195 189
2.03829050064086914 -3.45365548133850098 61.2178001403808594 160 143 135
2.66437625885009766 -1.16492354869842529 59.2985649108886719 90 90 99
1.25195789337158203 -3.14387726783752441 59.4171295166015625 233 253 255
0.951702237129211426 -3.40459918975830078 60.9220352172851562 159 140 118
1.0352398157119751 -2.20880770683288574 59.2555618286132812 181 186 198
-4.09315061569213867 -1.63947784900665283 64.1454925537109375 193 227 254
-3.67529630661010742 -1.81256747245788574 64.18975830078125 94 111 133
-3.45701050758361816 -1.79902338981628418 64.1608505249023438 207 233 248
-3.24260616302490234 0.354762375354766846 64.426605224609375 230 248 253
-3.92835140228271484 -1.54920971393585205 64.185150146484375 227 252 255
-3.99970698356628418 -1.42461764812469482 64.44927978515625 91 94 103
-3.0908968448638916 -1.68506348133087158 63.8592071533203125 166 193 222
4.06017732620239258 -0.333199530839920044 58.8776969909667969 161 152 142
0.985150694847106934 -2.75551199913024902 59.34722900390625 150 179 205
-2.98308634757995605 -0.429029375314712524 64.2098617553710938 44 41 32
-2.89366698265075684 0.402101814746856689 63.859344482421875 206 227 225
-3.74776411056518555 0.339387744665145874 64.2895736694335938 56 63 81
-3.15748405456542969 0.632361829280853271 64.3802719116210938 237 255 255
-3.65488576889038086 -0.637395799160003662 64.7153472900390625 178 200 208
-2.78760766983032227 0.643536210060119629 64.443267822265625 192 220 233
-3.147613525390625 0.145677298307418823 64.5259933471679688 237 254 254
1.32448852062225342 -3.29678463935852051 59.2030410766601562 141 166 196
1.40723776817321777 -3.31616401672363281 59.3107757568359375 228 255 255
1.3007427453994751 -3.19455242156982422 59.2802276611328125 232 255 255
1.1463775634765625 -3.05259919166564941 59.2804908752441406 88 123 148
1.001167893409729 -2.84688305854797363 59.4570159912109375 164 190 223
1.09308278560638428 -2.91999030113220215 59.2107734680175781 103 125 156
3.68796515464782715 -3.8072047233581543 60.2387046813964844 165 155 153
0.808626830577850342 -2.68359851837158203 59.3901481628417969 179 209 235
-3.32138824462890625 -1.57799410820007324 64.2513046264648438 228 255 255
-4.10260391235351562 -1.55843973159790039 64.109710693359375 209 243 255
2.3570244312286377 -1.24248242378234863 58.9972724914550781 241 255 255
-3.3249809741973877 -1.17529392242431641 58.7117042541503906 46 54 47
-3.92557001113891602 -1.50200366973876953 64.5257797241210938 162 189 226
2.26748561859130859 -0.820581436157226562 58.7364845275878906 132 116 102
-2.99358415603637695 -1.89292740821838379 64.0849685668945312 109 124 136
-4.09844779968261719 -0.482611387968063354 64.4775772094726562 137 112 92
-3.36850237846374512 -0.400562137365341187 64.3896255493164062 227 232 244
-3.16864609718322754 -0.687171220779418945 64.3456192016601562 54 58 70
-3.39251160621643066 0.126838341355323792 64.1386566162109375 36 41 70
2.93910312652587891 -1.43544745445251465 58.8857002258300781 104 99 100
-3.30403995513916016 0.456750810146331787 64.3442764282226562 227 254 255
-3.11258935928344727 0.225791916251182556 64.2401657104492188 88 121 199
-3.03087568283081055 0.343332201242446899 64.280731201171875 209 226 234
-2.87379050254821777 -1.53382980823516846 64.2952880859375 59 74 91
3.60817456245422363 1.18133115768432617 59.4358673095703125 167 160 142
-2.88841724395751953 0.342741340398788452 64.3555450439453125 47 51 63
-3.86260008811950684 0.685931026935577393 64.2305145263671875 180 194 203
1.49043726921081543 -3.43851447105407715 59.2168083190917969 126 152 171
0.795503079891204834 -2.72531509399414062 59.4456710815429688 129 158 188
-3.31999015808105469 0.0775773227214813232 64.3612442016601562 135 151 187
0.752342343330383301 -2.67419195175170898 59.5524749755859375 98 122 143
-3.89038920402526855 -1.5364227294921875 64.1379470825195312 168 200 228
-3.98379111289978027 -1.36641275882720947 64.2004470825195312 47 51 54
-3.30405330657958984 -1.46390402317047119 64.1991500854492188 232 246 255
2.48080158233642578 -1.28598618507385254 59.4549369812011719 98 122 132
2.74704480171203613 -1.24760234355926514 59.3294181823730469 89 85 86
-3.34723854064941406 -2.11699223518371582 63.5826835632324219 138 132 118
-4.14087247848510742 -1.18386268615722656 64.2896499633789062 142 116 93
-3.60986328125 -1.11010277271270752 64.2211227416992188 57 56 70
2.24716067314147949 -1.15818703174591064 59.3825798034667969 101 129 151
2.27827906608581543 -1.14285361766815186 59.0050430297851562 181 212 230
2.49353647232055664 -1.08659517765045166 59.3616523742675781 238 255 255
1.22758293151855469 1.68929398059844971 60.9953460693359375 158 147 127
-3.55435419082641602 -0.704637527465820312 63.8527297973632812 59 63 66
2.28042387962341309 -0.827699899673461914 59.3888587951660156 77 68 71
-3.43976211547851562 0.634577751159667969 64.3258819580078125 230 255 255
-0.248924866318702698 -1.17301368713378906 61.9691429138183594 163 156 143
-2.76656913757324219 0.702483117580413818 64.2292709350585938 239 254 255
1.49493169784545898 -3.62011981010437012 60.0860099792480469 144 122 108
-3.87474465370178223 -0.0400722548365592957 64.1434478759765625 127 140 157
-3.18900012969970703 -1.31224977970123291 63.6922874450683594 36 38 51
-1.46326684951782227 -1.69184255599975586 62.2217369079589844 170 160 148
-1.46710264682769775 -1.68444907665252686 62.2123298645019531 170 160 148
0.161547631025314331 1.76326322555541992 62.002532958984375 163 148 128
3.01209473609924316 -1.76829397678375244 58.6795616149902344 105 123 156
0.579769790172576904 -2.73186659812927246 59.3795814514160156 151 139 110
-3.74097871780395508 -1.48570096492767334 64.2351303100585938 175 203 225
-3.52992606163024902 -1.58222424983978271 64.1922149658203125 161 194 227
-2.72465753555297852 -1.45659017562866211 64.3026580810546875 113 104 95
2.31490421295166016 -0.92197185754776001 59.1313362121582031 212 231 243
2.57150769233703613 1.02610015869140625 60.157073974609375 152 136 120
2.40350794792175293 -0.878615617752075195 58.9583625793457031 179 170 163
-2.80267453193664551 -1.72034859657287598 64.0261154174804688 149 152 135
-3.45656156539916992 0.440575540065765381 64.3590927124023438 156 187 216
-3.05886101722717285 0.631492555141448975 64.3848114013671875 234 255 255
-2.67650151252746582 0.588355302810668945 64.2177734375 190 205 192
-5.89371252059936523 -2.60699248313903809 65.6522445678710938 180 154 135
0.965698182582855225 -2.31133413314819336 60.0869674682617188 121 112 113
-3.88586926460266113 0.493911296129226685 64.2576446533203125 86 97 114
-2.7656242847442627 -2.76846480369567871 64.636383056640625 141 131 119
2.3272097110748291 -3.72717547416687012 59.8863449096679688 162 145 135
3.91626548767089844 -3.05511379241943359 58.2482986450195312 166 156 146
4.68439483642578125 -0.113282084465026855 57.9758453369140625 174 167 157
4.15932989120483398 -1.07130944728851318 58.5793228149414062 159 151 140
5.07784557342529297 -1.09061682224273682 59.09295654296875 158 157 144
-4.13852167129516602 -0.76512378454208374 64.2867507934570312 139 114 83
-2.11898303031921387 -0.778169810771942139 63.8173370361328125 156 148 137
2.01108145713806152 -1.09929108619689941 59.0902366638183594 184 194 206
2.67350983619689941 -0.784764111042022705 59.2068519592285156 153 144 129
-3.10667800903320312 0.408439427614212036 64.0088348388671875 219 251 255
-1.15139138698577881 1.54024279117584229 62.9926414489746094 152 137 114
-3.26266598701477051 0.489576876163482666 64.3564071655273438 154 186 209
-3.59815812110900879 0.475343316793441772 64.4442596435546875 149 180 194
3.21458196640014648 0.315092593431472778 59.2597274780273438 176 163 146
-3.92614483833312988 -1.63955700397491455 64.100616455078125 191 220 239
4.04639101028442383 -3.58631348609924316 59.2787284851074219 165 153 144
4.59395170211791992 -0.829174339771270752 58.3922653198242188 142 131 117
1.41621077060699463 -3.17689681053161621 59.1802215576171875 134 161 182
-2.40551280975341797 -1.70736563205718994 64.018280029296875 162 153 141
-2.93847489356994629 0.709461092948913574 64.36614990234375 235 255 255
-3.37717008590698242 -1.38283252716064453 64.232574462890625 50 49 58
2.77416658401489258 -0.772544264793395996 59.21893310546875 166 154 142
-3.93748307228088379 0.164537414908409119 63.8408088684082031 183 199 234
-3.75988101959228516 -0.157884761691093445 64.1861419677734375 33 45 83
-1.20650184154510498 0.187148973345756531 62.7950363159179688 152 137 116
-3.62397980690002441 -0.536811411380767822 64.3863677978515625 32 44 64
-3.98888158798217773 -0.0282429568469524384 64.3597259521484375 50 51 52
-0.360823303461074829 0.00797856040298938751 62.3286285400390625 176 169 151
-3.72829842567443848 0.583815336227416992 64.2851715087890625 164 194 220
-1.37872397899627686 -0.327581882476806641 62.8700218200683594 169 163 150
2.73954105377197266 -0.0520002506673336029 59.906890869140625 168 154 143
2.2215569019317627 1.37807905673980713 60.5886878967285156 172 162 150
-2.70299434661865234 0.156265676021575928 64.2046051025390625 175 183 188
1.23875832557678223 0.510980367660522461 59.9333152770996094 146 137 122
0.450667411088943481 -1.45808577537536621 60.9052848815917969 166 151 132
3.00381183624267578 0.799579977989196777 59.7284774780273438 148 133 116
3.2739408016204834 1.93876981735229492 59.9618148803710938 174 160 140
1.60713028907775879 -4.06287431716918945 61.037841796875 138 124 111
-4.01050615310668945 -4.02536439895629883 64.0520782470703125 163 157 143
1.22169995307922363 -3.02344417572021484 59.2713890075683594 104 134 161
-0.429695010185241699 -2.85047388076782227 62.0750808715820312 168 160 147
1.94119977951049805 -3.222137451171875 58.8580741882324219 161 155 153
0.992681801319122314 -2.87530303001403809 59.4573135375976562 109 140 168
-3.79211282730102539 1.29147541522979736 65.0955734252929688 142 128 115
-3.06987357139587402 -2.42393970489501953 64.06585693359375 167 157 155
0.729620575904846191 -2.64563488960266113 59.3753089904785156 234 247 255
-1.91085600852966309 -1.62752819061279297 64.1664276123046875 163 153 141
-1.44322431087493896 -1.92571187019348145 61.5027008056640625 180 177 168
-3.21729016304016113 0.205674141645431519 63.8456611633300781 234 255 249
1.27021241188049316 0.153835728764533997 60.7648735046386719 173 165 153
-3.21534132957458496 -1.71294116973876953 63.1756973266601562 197 223 238
1.27047145366668701 0.149813726544380188 60.79547119140625 173 165 153
-4.25417327880859375 0.039423767477273941 64.9320755004882812 133 109 85
-3.0985569953918457 0.272098660469055176 64.0742263793945312 64 66 104
0.360224545001983643 1.71724045276641846 61.5833587646484375 173 169 156
2.82939958572387695 1.603507399559021 59.4351577758789062 175 163 147
2.03757548332214355 1.93931341171264648 60.6521682739257812 173 161 145
5.44589138031005859 -4.07849597930908203 57.0604362487792969 152 147 141
5.5178837776184082 -4.10408735275268555 57.5978584289550781 152 147 141
-3.89784026145935059 -0.311249524354934692 64.70269775390625 29 29 41
4.1698603630065918 -3.81675457954406738 57.4355735778808594 162 154 143
-4.36432313919067383 -2.39183211326599121 63.7968063354492188 166 163 152
4.35584115982055664 -3.72661423683166504 58.8414955139160156 142 131 121
0.880531370639801025 -3.574432373046875 60.6604156494140625 157 145 133
-3.21490478515625 -0.650022387504577637 64.6239013671875 26 23 34
5.34299278259277344 0.219791576266288757 57.8134498596191406 152 144 134
-0.968540191650390625 -3.34088897705078125 62.6078414916992188 149 140 124
-0.971892774105072021 -3.33671998977661133 62.4282875061035156 149 140 124
-0.381841033697128296 -2.69847226142883301 61.5848808288574219 163 156 140
-0.749578118324279785 -2.13059258460998535 61.9456405639648438 173 163 144
-0.0937466248869895935 -2.47070527076721191 62.5055274963378906 163 153 141
1.19982516765594482 -3.20982575416564941 59.2568511962890625 239 255 255
-3.33876633644104004 0.374970853328704834 64.2449874877929688 168 194 209
-3.62268257141113281 -1.49719512462615967 64.2882919311523438 157 184 205
-3.39005112648010254 0.4428672194480896 64.3911666870117188 226 255 255
-3.51078057289123535 -1.06167101860046387 64.1735916137695312 26 20 34
-4.39689064025878906 -2.90820622444152832 63.5302391052246094 157 157 146
3.32796120643615723 0.349200129508972168 58.7216033935546875 171 158 142
4.79319477081298828 -1.1572413444519043 57.9955558776855469 157 151 135
1.76622915267944336 1.74290227890014648 60.0458412170410156 168 167 151
-4.02651357650756836 -0.726720929145812988 64.15924072265625 37 31 42
-3.52519941329956055 0.629446029663085938 64.2903366088867188 176 205 221
1.424674391746521 -0.655229270458221436 60.5212326049804688 165 153 139
0.422304928302764893 -0.0883095413446426392 61.5657806396484375 168 161 145
2.1241004467010498 -2.87923860549926758 58.1821098327636719 127 139 161
5.37005281448364258 -0.22527720034122467 57.724639892578125 134 125 112
1.54113543033599854 -3.92331695556640625 60.1526985168457031 171 157 144
5.36979484558105469 -0.225643709301948547 57.7232398986816406 134 125 112
4.63201570510864258 -0.0250323805958032608 58.3758773803710938 152 151 137
3.95590996742248535 -1.16303694248199463 58.6243782043457031 142 132 120
4.0119938850402832 0.274018406867980957 58.640869140625 162 156 144
-4.01113033294677734 0.665162503719329834 64.33026123046875 111 111 138
2.90374255180358887 0.912813186645507812 59.950897216796875 169 160 145
1.02223265171051025 0.690371155738830566 61.3055877685546875 171 164 146
0.531784176826477051 -1.09268474578857422 60.7693557739257812 148 145 140
3.61461591720581055 1.3565908670425415 59.6415023803710938 176 169 155
1.51231718063354492 -3.51386213302612305 59.2098350524902344 144 159 192
-3.02828502655029297 0.584587454795837402 64.33282470703125 168 188 204
-4.58691835403442383 2.04014849662780762 65.2748947143554688 149 135 124
3.69383955001831055 -4.10376071929931641 57.8997955322265625 157 147 135
1.93321800231933594 -3.9483802318572998 59.3214340209960938 138 122 106
-1.93391263484954834 -2.66280150413513184 62.9883575439453125 148 139 134
5.01905393600463867 -3.7863156795501709 57.9331283569335938 152 145 135
0.127220690250396729 -3.24388599395751953 60.3967018127441406 147 132 113
-3.78902649879455566 0.11445268988609314 64.4570770263671875 150 164 164
-3.36934208869934082 -2.56137847900390625 64.39703369140625 156 147 147
4.09473657608032227 -1.34027314186096191 58.4812583923339844 155 154 142
5.59261417388916016 -1.20732498168945312 57.126220703125 153 149 137
4.83221292495727539 -1.00402665138244629 58.1788253784179688 137 126 109
-0.236357569694519043 -2.06211113929748535 61.7092170715332031 168 154 141
-1.5096358060836792 0.519386768341064453 62.9551162719726562 176 168 155
5.75240135192871094 -1.09370541572570801 57.26055908203125 136 127 112
-1.95311665534973145 -0.82427603006362915 62.9110145568847656 158 150 139
3.83700323104858398 0.216873466968536377 58.7394294738769531 167 164 151
-4.07319164276123047 -0.572246015071868896 64.381683349609375 231 227 231
-1.27181780338287354 0.377710074186325073 62.7829170227050781 147 130 114
-1.41331470012664795 0.670186519622802734 63.3922615051269531 149 132 116
-3.55188703536987305 -1.1740875244140625 64.3611984252929688 134 138 149
-3.12199568748474121 0.519361555576324463 64.3463592529296875 141 167 190
1.86959576606750488 -3.31068706512451172 59.2361488342285156 119 118 124
-4.43079042434692383 2.00056099891662598 65.7798080444335938 176 169 156
-2.02867484092712402 1.99428343772888184 64.103790283203125 177 168 158
-3.6781461238861084 -0.0847898274660110474 64.7718887329101562 231 255 253
-1.06059837341308594 2.0273444652557373 62.8856697082519531 174 165 151
-3.41438007354736328 -1.30249714851379395 64.2186203002929688 189 202 208
-2.00883054733276367 -4.50083637237548828 62.5978012084960938 167 158 151
1.82668006420135498 -3.38479161262512207 59.30621337890625 45 44 46
-3.06142926216125488 0.498960435390472412 64.3799591064453125 135 157 184
-5.9443821907043457 -1.1768416166305542 65.2797775268554688 177 179 178
4.53714752197265625 -4.05536556243896484 56.6429023742675781 165 162 157
2.38511395454406738 -4.07544755935668945 59.388214111328125 143 128 112
3.14966440200805664 -3.98326969146728516 59.0879745483398438 164 154 153
2.218719482421875 -3.41781449317932129 59.0123138427734375 155 145 135
4.47701215744018555 -3.8750603199005127 58.0218544006347656 142 127 108
-1.89834427833557129 -3.66591501235961914 64.4171371459960938 147 139 126
2.03344416618347168 0.280245482921600342 60.1688766479492188 140 125 103
2.00154709815979004 0.273169070482254028 59.7185707092285156 140 125 103
-1.36548864841461182 -3.91353058815002441 63.0349922180175781 149 148 143
-3.05059313774108887 0.663789570331573486 64.6821746826171875 232 255 255
5.89668703079223633 0.637692749500274658 57.7733345031738281 134 119 100
-3.76727032661437988 0.0936052203178405762 64.3262710571289062 85 97 97
3.2062075138092041 1.56723952293395996 59.4079322814941406 170 160 149
2.93691802024841309 -4.03213739395141602 58.986541748046875 144 130 117
-2.42251801490783691 -3.25746655464172363 63.2098503112792969 143 133 123
5.83024024963378906 -3.08689570426940918 56.6112174987792969 134 119 96
1.5531688928604126 0.416878581047058105 60.2455978393554688 171 160 142
6.20869159698486328 -2.61462068557739258 56.8809547424316406 150 147 142
2.66380882263183594 -2.35343599319458008 58.7025413513183594 157 162 162
-1.05260396003723145 -1.08127284049987793 62.7725601196289062 170 161 152
3.07607555389404297 -0.838371098041534424 59.4291877746582031 137 124 106
1.70016276836395264 -0.187579631805419922 60.6163520812988281 143 127 110
1.53947770595550537 1.42178559303283691 61.3414535522460938 171 162 145
-3.6933901309967041 2.01910781860351562 65.1016921997070312 172 163 154
-3.04487943649291992 -1.77705919742584229 64.2548980712890625 150 177 195
-1.6597062349319458 1.84860718250274658 63.2077102661132812 152 131 110
-1.52565455436706543 -2.86332392692565918 61.7743492126464844 149 137 121
-3.19606399536132812 0.424554198980331421 63.8201980590820312 231 255 255
-3.88261890411376953 -0.313335150480270386 64.3449172973632812 28 28 45
-3.53319144248962402 -0.607185304164886475 64.0018234252929688 219 241 251
4.41626644134521484 -1.18986117839813232 58.29345703125 141 129 113
4.36950969696044922 -1.18787205219268799 57.9534912109375 141 129 113
-3.61820125579833984 -1.51311278343200684 64.1737060546875 167 196 215
2.03423142433166504 1.93766796588897705 60.6017265319824219 165 156 139
-3.44481968879699707 -0.384677648544311523 64.3925857543945312 11 24 33
0.869493305683135986 -2.88088321685791016 59.2919387817382812 218 233 238
-3.04446935653686523 -1.4753422737121582 64.1920928955078125 176 201 211
5.14629316329956055 0.67815709114074707 58.1966552734375 151 149 136
1.36063659191131592 0.475088775157928467 60.8963203430175781 183 175 161
2.78179264068603516 -2.14222264289855957 58.667236328125 175 189 200
-2.86058187484741211 -1.61744439601898193 64.1401519775390625 220 254 255
2.71793603897094727 -1.59997522830963135 58.1921653747558594 155 178 193
-3.80134010314941406 -1.24581146240234375 64.1948776245117188 59 72 81
3.06998229026794434 -1.67581617832183838 59.2261886596679688 163 195 213
-2.89434289932250977 -1.85453999042510986 64.3702163696289062 162 179 189
-3.49169182777404785 -1.81463205814361572 64.1173324584960938 103 119 144
1.10578644275665283 -2.95554232597351074 59.3030014038085938 98 127 161
2.59030485153198242 -1.35150253772735596 58.9672317504882812 179 220 250
2.17082667350769043 -1.06449592113494873 59.4367294311523438 96 121 143
5.1717219352722168 -2.10817623138427734 57.4852218627929688 143 136 127
-3.88734722137451172 -1.7250291109085083 64.1192626953125 146 174 191
-3.53010034561157227 0.500367105007171631 64.4024658203125 161 194 213
-0.825684666633605957 -0.670562028884887695 62.0110282897949219 179 168 150
-3.61926054954528809 -0.00723159033805131912 64.5930023193359375 50 51 38
2.93268156051635742 -1.40773510932922363 58.6946983337402344 111 105 98
-3.90874123573303223 -1.79539728164672852 64.0982284545898438 102 121 136
-3.36983203887939453 -0.369390994310379028 64.382659912109375 30 36 51
-7.98378944396972656 -1.61404001712799072 66.2565994262695312 174 156 136
-3.20192217826843262 0.0650354325771331787 64.2508544921875 142 149 168
-3.19973897933959961 0.060895826667547226 64.265777587890625 142 149 168
2.41791963577270508 -3.80136680603027344 58.8118820190429688 169 156 147
0.790438711643218994 -3.4555821418762207 61.3389053344726562 162 150 134
-3.71219611167907715 0.525068759918212891 64.4508132934570312 168 197 226
3.31138348579406738 -1.12426984310150146 59.3579254150390625 158 148 136
-3.11211371421813965 -1.64542067050933838 63.8322410583496094 152 177 190
4.44021701812744141 -2.56915736198425293 57.1245002746582031 166 155 151
5.15964698791503906 -2.20982789993286133 54.3485755920410156 147 152 148
-3.89376187324523926 -1.40789973735809326 64.4082412719726562 69 92 126
-3.27984118461608887 0.286929517984390259 64.1769943237304688 173 207 255
-2.92783045768737793 0.329985767602920532 64.3291397094726562 55 52 59
-3.78887176513671875 0.701188385486602783 64.3670501708984375 161 180 189
3.58717679977416992 -0.366699963808059692 58.8560829162597656 163 159 148
-3.28594803810119629 0.667192220687866211 64.26556396484375 230 255 255
1.15367531776428223 -3.05640506744384766 59.3716583251953125 83 114 140
-3.73624157905578613 -0.53527909517288208 64.3069686889648438 241 255 255
1.45219230651855469 -3.33275699615478516 59.2754402160644531 231 255 255
1.28241801261901855 -3.15197634696960449 59.3665542602539062 155 173 197
1.33797216415405273 -3.07909417152404785 59.1609992980957031 153 177 211
0.936775386333465576 -2.96171331405639648 58.7706451416015625 222 252 255
0.959152519702911377 -2.73244714736938477 59.4149169921875 151 176 206
2.15405011177062988 -2.97247743606567383 59.242889404296875 197 206 210
1.18328452110290527 -2.07616114616394043 59.3789520263671875 201 227 251
-4.02715921401977539 -1.77425467967987061 64.1624603271484375 222 247 252
-3.97177314758300781 -1.67508888244628906 64.3213729858398438 151 175 185
-3.59929656982421875 -1.81921601295471191 64.1729812622070312 88 100 126
-3.65488576889038086 -0.637395799160003662 64.7153472900390625 178 200 208
0.503378391265869141 -1.87130451202392578 60.5561370849609375 162 150 136
1.97890686988830566 -1.14236938953399658 59.185760498046875 175 197 221
-0.952115893363952637 -0.222902938723564148 62.41973876953125 169 159 149
-3.79002714157104492 0.424530833959579468 64.3977203369140625 147 175 230
-3.33301401138305664 -1.30649292469024658 64.0787200927734375 61 59 73
-3.66203498840332031 0.328486919403076172 64.3937149047851562 114 126 146
-2.83677268028259277 0.31357109546661377 64.5066299438476562 75 93 128
3.56024527549743652 -2.08158683776855469 58.2769012451171875 0 0 0
-2.74415445327758789 0.349088340997695923 64.0100784301757812 45 57 59
-4.06986570358276367 -1.49858987331390381 64.4779815673828125 242 252 248
5.84988021850585938 0.846186816692352295 57.4282646179199219 151 145 129
2.70596122741699219 -1.55915617942810059 58.8329696655273438 195 226 245
-0.691325545310974121 -1.38159167766571045 62.3739204406738281 172 163 148
-3.18789577484130859 0.427633404731750488 63.7775382995605469 235 255 255
-3.72308087348937988 -1.43273615837097168 64.215545654296875 240 255 255
2.60937809944152832 -1.43623578548431396 59.293670654296875 234 251 255
-3.92775654792785645 -0.01198569405823946 64.5218353271484375 129 135 137
1.70957422256469727 -3.94385457038879395 59.0934715270996094 152 145 129
-4.05501985549926758 0.335531324148178101 64.4109115600585938 156 135 114
1.58890175819396973 -3.42334699630737305 59.5570144653320312 224 248 255
1.09112286567687988 0.515422821044921875 60.558441162109375 173 164 147
-3.15215611457824707 -1.63670599460601807 64.3206710815429688 139 165 190
4.57586336135864258 -1.36036026477813721 58.6182136535644531 162 150 134
-3.56616544723510742 -0.593517422676086426 64.9369583129882812 219 241 251
1.96139144897460938 -1.14578807353973389 59.0984001159667969 182 185 205
3.18792319297790527 1.37420368194580078 59.3011703491210938 166 153 136
-3.79221916198730469 -1.85971951484680176 64.1366653442382812 86 85 93
2.60756230354309082 -0.749636352062225342 59.6821098327636719 129 116 96
-3.88356399536132812 0.592079341411590576 64.3115768432617188 227 254 255
-2.94484829902648926 0.140353381633758545 64.259002685546875 45 48 43
-2.65673041343688965 -1.35471391677856445 63.9414291381835938 107 100 90
2.8976283073425293 0.907038390636444092 59.9172210693359375 167 164 149
6.3036646842956543 -2.33452343940734863 57.5769309997558594 133 119 99
-4.48886680603027344 -0.444897949695587158 65.3831329345703125 155 149 137
4.92551612854003906 -0.348388046026229858 57.3630790710449219 136 125 107
-0.781276881694793701 -4.30676698684692383 61.0917625427246094 170 162 151
4.92551612854003906 -0.348388046026229858 57.3630790710449219 136 125 107
4.88310575485229492 -2.05404090881347656 57.865631103515625 135 127 108
-3.69822812080383301 -0.354847192764282227 64.2787857055664062 23 22 38
-3.97971653938293457 0.327935665845870972 64.3822860717773438 71 62 68
-3.8813021183013916 -1.05071604251861572 64.0342941284179688 37 35 46
2.19088101387023926 -1.04037296772003174 59.4699745178222656 231 255 255
-3.21671247482299805 -0.64629065990447998 64.6558609008789062 26 23 34
-2.9128115177154541 0.517798840999603271 64.2804641723632812 183 214 226
1.10836052894592285 -2.97414469718933105 59.2587242126464844 102 131 157
-3.90866804122924805 -0.603962242603302002 63.8135833740234375 146 157 141
-3.13124561309814453 0.791963875293731689 64.3603286743164062 110 130 157
0.929237604141235352 0.0246657896786928177 61.2520790100097656 151 138 122
-3.21403741836547852 0.427781194448471069 64.3181686401367188 235 255 255
1.05289614200592041 -3.0490717887878418 59.3058586120605469 179 207 231
2.42460441589355469 -1.28778326511383057 59.3658256530761719 233 254 255
0.880374789237976074 -2.8418428897857666 58.0293388366699219 103 127 139
0.764500558376312256 -2.56039857864379883 59.2903404235839844 150 165 189
1.22147989273071289 -1.99337172508239746 59.6205368041992188 96 98 109
-3.29593038558959961 0.735253393650054932 63.6834526062011719 107 134 169
-2.96048998832702637 -1.35825693607330322 64.3493118286132812 31 31 34
-0.694032251834869385 -1.48444664478302002 63.3850440979003906 140 139 135
6.16301536560058594 -1.17894673347473145 56.9809646606445312 137 125 99
-3.52548027038574219 0.549314975738525391 64.2949752807617188 236 254 255
-3.77786445617675781 -1.3170778751373291 64.15240478515625 91 102 120
-2.14089751243591309 -2.80040144920349121 63.7877006530761719 146 138 127
-2.92443633079528809 0.435102075338363647 64.1629791259765625 150 179 191
-2.7698516845703125 0.17818787693977356 64.2892608642578125 23 46 96
1.40744495391845703 -3.31230354309082031 59.28887939453125 227 255 255
-3.66505718231201172 -1.77314305305480957 64.13916015625 167 192 214
-2.70854592323303223 0.158730447292327881 64.214630126953125 148 152 154
-3.49195766448974609 -0.138653844594955444 64.1363449096679688 40 45 50
5.85198354721069336 0.854279875755310059 57.451202392578125 151 145 129
2.9690549373626709 -1.7127760648727417 58.7950820922851562 105 135 159
-3.9163672924041748 -1.31749975681304932 64.322113037109375 112 120 131
-3.06613993644714355 -1.36559188365936279 63.9630508422851562 44 58 97
-3.35797977447509766 0.866449654102325439 64.7505340576171875 105 97 95
-3.15739536285400391 0.596322417259216309 64.3653411865234375 173 201 205
2.49924850463867188 -1.38307869434356689 59.024383544921875 235 255 255
-0.940692007541656494 -3.63799548149108887 62.1157684326171875 172 169 159
-1.92047834396362305 0.895215332508087158 63.4628715515136719 183 174 165
2.18976902961730957 -1.3749920129776001 56.1142349243164062 161 194 225
-0.476157218217849731 0.743120968341827393 62.2866096496582031 159 151 149
-4.050628662109375 -0.336872607469558716 64.3819732666015625 44 29 26
5.79947042465209961 -2.93030023574829102 58.0742378234863281 137 123 114
2.49409079551696777 -3.44458508491516113 60.1844711303710938 150 136 123
2.7467808723449707 -1.52589011192321777 58.2872734069824219 157 184 194
-0.0822861790657043457 -2.80803585052490234 61.2157936096191406 170 160 146
-2.69308757781982422 -1.22751748561859131 63.8101348876953125 112 104 89
-3.05574703216552734 0.0570217594504356384 64.2635040283203125 61 67 49
4.34588813781738281 -0.752203583717346191 57.6530075073242188 162 157 146
2.14739060401916504 1.43880701065063477 60.5307159423828125 151 138 115
