ply
format ascii 1.0
element vertex 671
property float x
property float y
property float z
property uchar red
property uchar green
property uchar blue
end_header
16.4934520721435547 -10.3782234191894531 228.941864013671875 138 138 171
1.26171255111694336 5.80822896957397461 230.250457763671875 71 84 139
-17.6604595184326172 -6.728240966796875 228.6578369140625 94 96 144
-7.81893587112426758 -5.5788264274597168 229.569122314453125 106 113 168
-7.04980325698852539 -5.51954269409179688 229.602554321289062 68 70 144
14.5637845993041992 -4.71113872528076172 230.862152099609375 135 137 160
-7.88208293914794922 -5.29904079437255859 229.580062866210938 65 69 133
10.1659326553344727 -5.21899843215942383 230.747604370117188 125 132 156
17.0657939910888672 2.28345370292663574 230.4560546875 131 133 154
-2.37091207504272461 -5.49224662780761719 229.71868896484375 128 136 169
-8.60998344421386719 -6.24563121795654297 230.024932861328125 61 64 142
12.1264619827270508 -5.13658761978149414 230.252105712890625 97 100 167
1.53679788112640381 -5.62298965454101562 229.995376586914062 106 114 144
-10.9408416748046875 -4.31947898864746094 229.165557861328125 139 133 133
-9.7373809814453125 -7.00885343551635742 229.773910522460938 122 124 160
1.28401172161102295 -3.06748747825622559 230.604736328125 143 146 155
16.0810031890869141 -1.71525168418884277 231.076080322265625 53 61 146
-9.00977802276611328 -6.38278007507324219 230.120834350585938 97 101 169
0.220537394285202026 -2.92181801795959473 230.148193359375 88 96 132
-11.9276227951049805 -1.83134102821350098 229.127487182617188 76 79 147
11.3293704986572266 -6.57508182525634766 231.077545166015625 124 123 160
-12.1552152633666992 -0.445243299007415771 228.847030639648438 38 43 132
-12.9116497039794922 -1.7723311185836792 228.978256225585938 51 52 135
-12.1703338623046875 -1.76058495044708252 228.432571411132812 79 86 155
-13.3235492706298828 3.33665704727172852 228.847335815429688 84 82 132
16.7177677154541016 -4.92460775375366211 231.318695068359375 29 34 118
15.5108575820922852 -2.92271637916564941 230.945602416992188 48 55 135
-5.20075225830078125 0.52128303050994873 229.394851684570312 142 144 139
11.3869533538818359 0.690255105495452881 230.3453369140625 90 88 91
16.2525310516357422 3.11883187294006348 230.570541381835938 39 45 135
0.663929760456085205 1.55022633075714111 230.18524169921875 103 116 159
-12.4871587753295898 0.667642414569854736 229.048873901367188 43 47 146
12.2463560104370117 -4.83954906463623047 230.435760498046875 79 88 131
9.24389076232910156 0.787950515747070312 227.56402587890625 72 63 53
9.54065799713134766 0.979921936988830566 227.808074951171875 44 41 30
11.7360439300537109 0.469326049089431763 229.267120361328125 143 147 142
0.486521929502487183 -1.87570691108703613 229.652069091796875 86 98 146
17.0638103485107422 4.47342967987060547 231.160629272460938 62 68 126
-11.9520883560180664 -0.772151947021484375 229.205291748046875 71 80 145
-2.73800754547119141 -0.659326851367950439 229.621688842773438 177 180 171
0.665000319480895996 7.03955078125 228.333709716796875 122 129 164
-12.9735307693481445 2.68279838562011719 229.89691162109375 80 85 167
12.0450191497802734 -5.29560613632202148 230.785751342773438 46 54 139
-12.5014142990112305 4.35978603363037109 228.726654052734375 47 47 146
0.990064501762390137 0.644596755504608154 229.835922241210938 63 80 125
-13.2656383514404297 4.20086383819580078 228.615310668945312 78 78 130
0.664262652397155762 1.14071857929229736 229.971466064453125 49 66 113
-4.67820549011230469 -6.04687261581420898 229.292816162109375 64 71 159
0.386373400688171387 -2.65502357482910156 230.347091674804688 89 101 138
1.26135814189910889 2.38581490516662598 229.954635620117188 92 104 144
7.71364068984985352 -5.64122676849365234 230.08251953125 85 91 177
1.14342999458312988 2.8669121265411377 229.648422241210938 70 85 127
-8.74870395660400391 -5.23898029327392578 229.519622802734375 84 84 120
-8.69508838653564453 -7.056488037109375 229.816665649414062 135 133 156
20.5096492767333984 -5.9928584098815918 231.575897216796875 85 88 144
-12.9960536956787109 5.99266576766967773 229.99273681640625 99 104 163
-12.9626626968383789 -10.1735172271728516 229.22027587890625 66 73 153
0.534948348999023438 -10.132781982421875 230.380340576171875 88 110 151
9.58011722564697266 0.485327959060668945 228.305160522460938 79 69 59
5.67299699783325195 -6.18511390686035156 230.247161865234375 66 71 162
2.91127157211303711 -2.55626654624938965 227.334548950195312 131 124 108
4.53644895553588867 -1.82213068008422852 227.415908813476562 79 73 65
0.0920181050896644592 -9.81070899963378906 230.440399169921875 71 80 123
0.394036263227462769 -7.66652822494506836 229.813507080078125 101 117 163
16.7643337249755859 -6.31967258453369141 231.7562255859375 50 53 127
-12.2076282501220703 5.04204463958740234 228.962051391601562 74 76 150
0.10208573192358017 -7.05341100692749023 230.401275634765625 103 115 157
16.5575637817382812 -9.07597446441650391 231.212738037109375 71 76 156
5.07718658447265625 -6.93453884124755859 230.3258056640625 126 131 169
12.4943056106567383 -2.30231046676635742 229.896636962890625 163 164 156
-11.944767951965332 -2.44823932647705078 229.269271850585938 78 86 159
0.683430910110473633 5.761016845703125 230.014846801757812 90 96 132
-13.279606819152832 1.4668421745300293 230.173843383789062 59 66 131
-7.93664979934692383 -6.88440322875976562 229.486297607421875 81 82 137
3.23394155502319336 -6.88518142700195312 230.331817626953125 48 54 142
9.08176612854003906 2.59006619453430176 227.764724731445312 46 37 28
1.09029746055603027 -5.73835420608520508 229.599960327148438 45 59 124
-5.08274126052856445 -6.75652265548706055 229.789810180664062 113 116 171
-14.77117919921875 -4.54497861862182617 229.424957275390625 167 166 165
-4.51338768005371094 -6.73746109008789062 229.787521362304688 107 113 158
-9.41035842895507812 -7.16715383529663086 229.579986572265625 109 107 129
-0.211431235074996948 -6.67895936965942383 229.89581298828125 78 83 147
-0.45787656307220459 -7.00149059295654297 229.8758544921875 80 80 130
-5.98727035522460938 -5.40141487121582031 229.544082641601562 67 68 132
-5.51684904098510742 -5.61327791213989258 229.434356689453125 61 72 147
-6.88242435455322266 -6.65676116943359375 229.749008178710938 53 59 120
-3.3180239200592041 -6.65077781677246094 230.060379028320312 48 53 131
-12.4933013916015625 3.71669316291809082 227.751998901367188 44 54 143
0.143064871430397034 -3.64861607551574707 229.850311279296875 93 104 135
-7.10476350784301758 -6.61114358901977539 229.565261840820312 97 109 159
6.16438484191894531 -6.53283882141113281 230.349853515625 86 91 166
16.551605224609375 0.273983001708984375 230.976272583007812 36 42 130
16.4191246032714844 -6.98089456558227539 230.597000122070312 32 37 118
15.7118206024169922 -6.72965669631958008 230.563018798828125 40 48 129
14.3358364105224609 -3.87293028831481934 230.508651733398438 156 157 158
-5.47594213485717773 -6.01352787017822266 229.14013671875 40 49 144
-2.08149600028991699 -6.4993739128112793 230.165435791015625 39 45 140
1.41946887969970703 -6.53450870513916016 230.867660522460938 64 70 158
9.12070560455322266 -5.72324514389038086 230.976959228515625 64 74 161
-2.14868378639221191 -7.01504325866699219 229.981781005859375 71 70 119
7.15331840515136719 -5.37161111831665039 230.049972534179688 117 121 174
-6.35773038864135742 -6.41244840621948242 229.588287353515625 66 72 155
-0.24492567777633667 -5.65919733047485352 230.118011474609375 58 67 134
9.84349632263183594 1.10550129413604736 227.314620971679688 194 176 167
-13.5021066665649414 -1.47424006462097168 229.446884155273438 89 83 136
1.63411045074462891 -6.35734415054321289 230.326950073242188 33 40 131
0.0940384790301322937 -6.34391117095947266 230.4241943359375 26 31 115
-5.90066289901733398 -6.87048530578613281 229.959609985351562 83 84 129
-4.6276860237121582 -6.65760469436645508 229.903182983398438 64 71 139
-6.86523008346557617 -6.13611316680908203 229.435134887695312 74 79 146
-5.10561752319335938 -6.15817356109619141 229.675323486328125 68 76 156
2.76504206657409668 -2.53178977966308594 226.050018310546875 76 68 57
-11.8668842315673828 -5.79492044448852539 228.76416015625 82 89 164
4.04067277908325195 -5.68198108673095703 229.982147216796875 111 120 171
8.10884666442871094 -6.17595100402832031 230.869430541992188 34 41 122
-5.34867191314697266 -6.09984827041625977 229.828475952148438 76 86 171
-9.19057559967041016 -6.53713607788085938 229.91619873046875 71 72 140
-3.66391968727111816 -6.02894020080566406 229.727981567382812 77 84 160
3.41670656204223633 -5.83853960037231445 230.2781982421875 47 59 132
-7.14946794509887695 -5.40037727355957031 229.868927001953125 91 94 140
2.79343700408935547 -2.42266130447387695 227.06121826171875 123 111 99
-6.92910623550415039 -5.43001270294189453 229.628433227539062 69 73 135
-8.17273330688476562 -5.81169700622558594 229.671157836914062 58 62 137
3.08989143371582031 -5.62254047393798828 230.161422729492188 94 97 145
-12.070002555847168 -1.30013024806976318 229.132049560546875 51 59 135
1.64609098434448242 -5.7203521728515625 230.064178466796875 91 95 142
4.9140934944152832 -5.61086511611938477 230.374725341796875 82 83 128
2.37514019012451172 -6.85734844207763672 230.258468627929688 62 69 132
-7.63434553146362305 -5.20716047286987305 230.021560668945312 109 118 151
-6.75206804275512695 -5.62443065643310547 229.3487548828125 78 85 157
-9.53416347503662109 -5.5420379638671875 229.42132568359375 71 76 134
4.8456730842590332 -5.62337064743041992 228.741668701171875 68 70 116
2.66454005241394043 -2.23496103286743164 227.970657348632812 254 242 226
1.82704615592956543 -5.53693151473999023 230.013229370117188 143 149 167
11.44329833984375 -6.20194864273071289 230.65447998046875 44 46 120
-4.85471630096435547 -5.48825693130493164 229.694061279296875 55 56 136
-12.5036630630493164 -9.15042018890380859 229.242584228515625 87 95 150
3.0135188102722168 -2.46577119827270508 227.345428466796875 65 56 43
1.63411045074462891 -6.35734415054321289 230.326950073242188 33 40 131
-6.85865640640258789 -6.12979459762573242 229.494384765625 74 79 146
2.31837296485900879 -1.79479694366455078 227.73590087890625 115 106 92
-3.26152682304382324 -6.91686201095581055 229.889816284179688 119 119 169
-5.10561752319335938 -6.15817356109619141 229.675323486328125 68 76 156
-2.73755311965942383 -0.658470094203948975 229.61407470703125 177 180 171
8.91339397430419922 -5.65422201156616211 230.739151000976562 47 54 144
-0.812130331993103027 -5.614593505859375 229.945053100585938 59 68 125
15.5471401214599609 0.621251463890075684 231.00079345703125 75 82 136
-9.17215728759765625 -5.46444797515869141 229.710128784179688 75 78 131
-13.5959568023681641 0.589626610279083252 229.087493896484375 80 78 127
0.209465831518173218 -4.99291133880615234 230.260452270507812 103 112 155
-2.37783336639404297 -5.90850925445556641 229.9676513671875 54 62 141
0.637549221515655518 -7.87671327590942383 230.311279296875 72 88 128
-11.3482074737548828 -7.0118718147277832 229.602920532226562 150 149 156
11.7822427749633789 -5.6620631217956543 231.101425170898438 65 73 158
11.8025894165039062 0.175572335720062256 230.503372192382812 89 87 91
-13.1650466918945312 -6.13147211074829102 229.0322265625 32 36 123
3.53626370429992676 -6.40317678451538086 231.134567260742188 54 65 157
15.4406929016113281 1.19490253925323486 231.274856567382812 119 124 155
-8.98096370697021484 -6.95278787612915039 230.228988647460938 88 92 139
0.246443033218383789 -10.5800809860229492 230.540023803710938 65 78 132
-0.235713481903076172 -6.89231967926025391 229.922714233398438 44 50 110
-4.78685998916625977 -6.86026191711425781 229.591796875 81 81 129
-10.5041046142578125 -6.8269038200378418 229.43194580078125 132 134 175
3.91835856437683105 -5.67603015899658203 230.313339233398438 77 84 130
3.6944115161895752 -7.03449630737304688 230.080917358398438 144 144 172
3.8195033073425293 -6.91333723068237305 230.270172119140625 70 76 128
-7.22186756134033203 -6.84235095977783203 229.767959594726562 94 96 135
-17.7843990325927734 -6.7167963981628418 228.642227172851562 95 99 137
4.33924436569213867 -2.01541757583618164 227.628982543945312 62 52 51
-5.67573785781860352 -0.242288276553153992 231.585906982421875 161 165 158
6.24672365188598633 -6.73508834838867188 230.520858764648438 48 51 117
-11.333287239074707 -7.87701511383056641 229.694717407226562 159 159 159
-15.2653884887695312 -5.41875457763671875 229.515228271484375 114 123 166
2.54986739158630371 -6.01858234405517578 230.133926391601562 57 62 135
-2.92042946815490723 -6.79552745819091797 230.016067504882812 50 55 130
15.652400016784668 -10.4623527526855469 231.598190307617188 81 88 156
11.5203113555908203 -5.88551521301269531 230.636367797851562 74 80 162
-5.61712980270385742 -6.42061567306518555 229.842880249023438 72 78 162
15.9728870391845703 -5.59270191192626953 230.85882568359375 38 44 132
17.1700363159179688 0.186722561717033386 231.091049194335938 63 68 124
-5.97148990631103516 -6.35778713226318359 229.795501708984375 75 81 170
-13.8781585693359375 -8.67438125610351562 229.572128295898438 66 67 154
-5.78521347045898438 -6.35968589782714844 229.659133911132812 41 45 136
-12.5165081024169922 -10.9614629745483398 229.438720703125 62 71 140
7.62495565414428711 -5.0953831672668457 230.723403930664062 154 157 180
-13.3895854949951172 7.87451314926147461 230.30975341796875 148 142 181
2.03127646446228027 -6.33042240142822266 229.989593505859375 55 62 153
-8.80279254913330078 -6.14942455291748047 229.755279541015625 58 63 132
-13.5996541976928711 -0.964003086090087891 228.47467041015625 140 136 153
7.85094404220581055 -6.1517486572265625 230.30560302734375 83 91 166
15.3435068130493164 -12.8489913940429688 232.304489135742188 32 37 131
17.6107463836669922 -6.82407855987548828 229.729263305664062 158 160 159
-11.473663330078125 7.71255207061767578 230.772109985351562 146 150 177
-9.11972332000732422 -6.03449296951293945 229.501358032226562 54 61 141
1.53755772113800049 -5.98709487915039062 230.115798950195312 51 54 132
-7.49124383926391602 -5.86164140701293945 229.694900512695312 83 86 163
-12.7467050552368164 -2.28696632385253906 229.32281494140625 52 55 133
17.2879829406738281 -0.281742662191390991 231.203567504882812 133 135 160
-1.85706436634063721 -6.38896799087524414 229.8692626953125 98 108 161
5.43608236312866211 -5.87596988677978516 230.3623046875 90 97 168
-13.1653499603271484 -6.13216733932495117 229.084075927734375 32 36 123
15.2836017608642578 -6.91700887680053711 230.844482421875 60 68 133
-0.658511936664581299 -5.75449323654174805 229.849990844726562 74 75 158
-7.83075475692749023 -5.76473665237426758 229.666961669921875 51 57 139
15.3285064697265625 -7.31226634979248047 230.980499267578125 71 78 132
-2.47897148132324219 -5.74531698226928711 229.732269287109375 99 104 167
7.45496082305908203 -6.4176487922668457 230.853607177734375 42 48 124
-9.67071533203125 -5.69288921356201172 229.247848510742188 99 108 173
14.7592411041259766 0.146057188510894775 230.743408203125 168 170 167
-10.2434425354003906 -6.91597414016723633 229.280059814453125 115 116 135
5.25943470001220703 -6.92786169052124023 230.101165771484375 81 82 130
-5.33631467819213867 -5.69781064987182617 229.859710693359375 85 97 157
18.9098052978515625 -5.39678573608398438 230.553482055664062 46 53 145
-9.01361274719238281 -5.56043195724487305 229.701522827148438 100 105 167
-12.0950002670288086 2.03290319442749023 228.754898071289062 87 93 171
-13.3984766006469727 -5.12322473526000977 229.619140625 31 38 128
-13.2233095169067383 4.38553762435913086 228.724746704101562 93 90 140
-8.55095291137695312 -5.52898597717285156 229.516067504882812 66 70 141
14.9685850143432617 -9.70801925659179688 230.580642700195312 70 73 124
-0.564468741416931152 -5.53987216949462891 229.658248901367188 54 56 115
-11.8122930526733398 2.48079204559326172 229.487274169921875 123 134 180
6.9546208381652832 -1.37475252151489258 229.743743896484375 102 103 98
9.79966640472412109 0.636323392391204834 227.726547241210938 67 57 56
11.7659978866577148 -5.6616826057434082 230.97991943359375 65 75 160
0.196162953972816467 0.410128623247146606 229.57342529296875 92 99 123
16.2787189483642578 -2.52387022972106934 230.930877685546875 33 42 132
-14.226069450378418 -9.47452068328857422 229.375717163085938 87 90 145
15.5563325881958008 1.9828038215637207 230.409103393554688 88 97 153
-12.4402084350585938 0.382769465446472168 229.080093383789062 81 85 156
2.03232407569885254 -6.33435535430908203 230.054885864257812 55 62 153
0.942165076732635498 -3.67052006721496582 230.247161865234375 133 143 162
-11.6478176116943359 9.08948612213134766 230.141769409179688 81 86 155
7.42333555221557617 -5.48465728759765625 231.082061767578125 78 79 143
7.75685644149780273 -5.48334121704101562 230.658920288085938 58 66 139
15.6474180221557617 -4.70124912261962891 231.420486450195312 75 84 150
15.3781852722167969 -10.8527593612670898 231.68426513671875 53 62 129
-12.4262428283691406 -3.52942037582397461 229.01983642578125 33 40 121
8.41681003570556641 -6.64216375350952148 230.509140014648438 100 104 167
-8.34122943878173828 -5.35363960266113281 229.679824829101562 64 70 132
8.77799510955810547 -6.68870925903320312 229.737258911132812 85 86 142
6.14604568481445312 -5.3301386833190918 230.58477783203125 129 133 156
9.1959228515625 0.71025848388671875 227.703033447265625 67 58 49
-14.0493001937866211 1.70623409748077393 225.5010986328125 169 169 167
8.85326862335205078 -5.28156948089599609 230.595855712890625 68 76 124
15.5318822860717773 -0.770274877548217773 230.403152465820312 63 68 134
1.11147594451904297 -4.77553653717041016 229.982513427734375 109 120 140
2.37006711959838867 8.21985435485839844 229.45587158203125 161 167 165
-5.0332183837890625 -6.97320747375488281 229.796005249023438 114 114 150
-11.8188600540161133 -1.1848219633102417 229.126754760742188 95 104 143
3.06706643104553223 -2.5438392162322998 227.562637329101562 152 141 129
1.00206005573272705 -4.92830657958984375 229.892410278320312 92 102 143
14.3358364105224609 -3.87293028831481934 230.508651733398438 156 157 158
-15.06243896484375 -6.93270349502563477 229.296310424804688 97 99 140
-5.58656167984008789 -6.83766794204711914 229.830718994140625 72 76 132
-4.07095623016357422 -6.84607076644897461 230.183944702148438 80 85 173
2.70128965377807617 -2.14743638038635254 227.197052001953125 90 77 71
8.49282550811767578 -5.96405124664306641 230.373092651367188 36 44 126
-8.91406917572021484 -6.65706777572631836 229.528335571289062 115 118 178
-9.60423946380615234 -6.47895526885986328 229.593246459960938 48 54 141
13.9606380462646484 -4.91861820220947266 231.243255615234375 91 100 133
-12.5581636428833008 -9.73496913909912109 229.641311645507812 127 138 170
-6.64236974716186523 -6.41156530380249023 229.588729858398438 32 36 109
9.93197250366210938 0.787254631519317627 227.892547607421875 61 53 44
-11.7572793960571289 -9.9094390869140625 229.049148559570312 166 166 166
6.31597232818603516 -6.4023280143737793 230.292160034179688 21 24 95
2.43011784553527832 -2.11022591590881348 227.333038330078125 75 62 52
-6.0504145622253418 -6.19668960571289062 229.75726318359375 35 40 135
-13.4625759124755859 -8.56773662567138672 229.555023193359375 68 73 159
1.05956125259399414 6.19966268539428711 229.714691162109375 56 66 128
-12.368138313293457 -10.5259199142456055 229.471054077148438 135 145 172
2.38080763816833496 -6.11090230941772461 230.7628173828125 86 93 165
-1.96674239635467529 -5.96951913833618164 230.008102416992188 88 94 158
-11.2336111068725586 3.36897110939025879 229.710296630859375 161 163 162
13.7122373580932617 -4.99940872192382812 230.99530029296875 80 88 148
4.79698276519775391 -5.78456211090087891 230.43896484375 116 122 172
9.32047939300537109 -5.91950035095214844 230.825912475585938 70 78 159
8.72387886047363281 -5.23007726669311523 229.85113525390625 68 77 129
12.691314697265625 -5.55749940872192383 231.0003662109375 49 53 151
-3.62461256980895996 -5.7502288818359375 230.097412109375 118 123 187
8.24304389953613281 -6.81025934219360352 230.381027221679688 144 145 170
11.5541191101074219 -5.75902318954467773 230.758773803710938 29 34 124
9.39772701263427734 2.53572440147399902 227.791793823242188 133 134 126
-5.73180341720581055 -4.89743375778198242 229.141387939453125 165 165 167
0.574366450309753418 -12.4395236968994141 230.360122680664062 85 95 129
9.75932884216308594 1.3307260274887085 228.730545043945312 59 52 46
-2.9815070629119873 -5.6814732551574707 229.828338623046875 80 84 131
-8.85897445678710938 -6.38698434829711914 229.80816650390625 99 102 157
-11.6463918685913086 8.45338153839111328 230.148880004882812 81 91 147
1.82582712173461914 5.74750709533691406 229.909805297851562 163 165 164
8.32923698425292969 -6.19777393341064453 230.203353881835938 74 85 156
-2.0832359790802002 -5.53925704956054688 229.809310913085938 89 90 128
-9.89470577239990234 -5.51532125473022461 229.501129150390625 101 107 150
19.1559715270996094 -6.01967859268188477 231.558547973632812 67 71 133
3.55800533294677734 -2.65788173675537109 227.69512939453125 51 37 24
1.05956125259399414 6.19966268539428711 229.714691162109375 56 66 128
-4.60691070556640625 -5.47156095504760742 229.78643798828125 77 79 140
15.959324836730957 -12.52398681640625 231.117233276367188 39 47 115
-10.6574907302856445 -5.40831422805786133 229.325469970703125 94 96 134
1.71305704116821289 -2.50231242179870605 227.630599975585938 144 145 139
-14.2722282409667969 -9.74052143096923828 229.353118896484375 64 63 129
-5.00840282440185547 -5.85608339309692383 226.988189697265625 35 40 138
-11.8143730163574219 -5.34993553161621094 229.318450927734375 104 108 138
3.51738882064819336 -2.25653171539306641 227.428985595703125 63 51 41
2.65843629837036133 -2.34547233581542969 230.985000610351562 81 63 62
5.82236385345458984 -1.67578756809234619 226.880706787109375 75 66 71
1.69646346569061279 -1.29379832744598389 228.295791625976562 152 142 126
-7.72112703323364258 -5.73368263244628906 230.160842895507812 88 95 163
2.23184561729431152 -1.06735324859619141 227.256011962890625 140 127 114
9.03965568542480469 0.459003031253814697 227.570022583007812 46 38 34
9.78623867034912109 1.08623993396759033 228.061141967773438 159 152 139
2.22537016868591309 -1.81918394565582275 228.029159545898438 81 71 58
-14.4212856292724609 -9.73459529876708984 229.353256225585938 149 141 176
9.74218654632568359 1.21320855617523193 227.87451171875 55 51 43
9.64757919311523438 1.57425510883331299 228.164306640625 120 112 101
9.5367889404296875 1.92463886737823486 227.7769775390625 75 62 55
11.0764780044555664 -6.37378644943237305 230.816207885742188 78 77 135
10.9782724380493164 -6.27264738082885742 230.805023193359375 81 82 147
8.52074050903320312 2.36558365821838379 227.605499267578125 75 66 51
-11.8893394470214844 2.47076845169067383 228.78973388671875 66 75 144
-13.3371219635009766 -1.16464340686798096 229.2435302734375 83 78 142
17.4360179901123047 -5.46782445907592773 232.1195068359375 88 92 144
15.5170249938964844 -2.3503572940826416 230.72515869140625 55 64 123
20.366058349609375 1.32803499698638916 291.786773681640625 139 141 166
1.40084099769592285 3.34661650657653809 229.841079711914062 107 121 148
-5.43652963638305664 -6.7327275276184082 229.8887939453125 85 95 157
0.582896232604980469 3.64187812805175781 229.7203369140625 82 93 125
-5.43559503555297852 -6.93323802947998047 229.464828491210938 145 142 168
11.3118505477905273 0.280827045440673828 230.75946044921875 146 145 140
-4.31809902191162109 -6.81648445129394531 229.813385009765625 98 100 166
-6.97499704360961914 -5.1664881706237793 229.562896728515625 131 129 143
7.90833520889282227 -0.95725858211517334 228.323486328125 108 107 103
-11.6789379119873047 0.297249555587768555 229.0599365234375 150 156 154
0.316068321466445923 5.49115562438964844 229.294662475585938 117 114 103
-12.5033016204833984 -8.91500091552734375 229.275543212890625 69 77 135
9.30217647552490234 2.35110068321228027 227.936065673828125 69 61 54
-12.42767333984375 -8.38598537445068359 229.230499267578125 95 101 143
-5.22524738311767578 -6.95678234100341797 229.805450439453125 90 90 126
-14.1771163940429688 -7.29186105728149414 229.256546020507812 97 92 130
3.7517390251159668 9.76075935363769531 232.430206298828125 94 107 141
14.9942893981933594 -6.57480382919311523 231.179244995117188 101 100 158
-2.37926840782165527 -6.9243927001953125 229.913665771484375 67 76 133
-12.2929658889770508 -2.69945383071899414 229.169677734375 61 69 151
-15.9809255599975586 -6.70877456665039062 229.04840087890625 56 58 141
-9.60914897918701172 -6.48706293106079102 229.694747924804688 48 54 141
-6.03423500061035156 -6.20405054092407227 229.571182250976562 35 40 135
-4.70409822463989258 -7.01782608032226562 230.038665771484375 148 146 167
16.1094646453857422 3.26795172691345215 230.94732666015625 87 92 158
-12.899775505065918 6.33907556533813477 229.166275024414062 77 78 160
-9.14520168304443359 -5.62674331665039062 229.357513427734375 59 69 140
3.3310549259185791 -2.49948549270629883 227.103302001953125 89 77 55
-13.3027887344360352 2.38751482963562012 228.949081420898438 71 74 147
7.21702051162719727 -5.49607419967651367 229.299575805664062 112 113 178
-12.1573333740234375 -3.52146649360656738 229.297836303710938 115 127 177
-12.9615688323974609 -3.47591423988342285 229.33355712890625 89 93 157
16.9683609008789062 -6.15550470352172852 230.951858520507812 113 111 158
11.3155584335327148 0.275974184274673462 230.921920776367188 146 145 140
3.3644559383392334 -2.81570911407470703 227.498428344726562 65 59 49
9.34251308441162109 0.543982446193695068 227.918167114257812 129 120 111
-11.8940811157226562 1.1964040994644165 228.503433227539062 76 82 140
-13.3895626068115234 -0.720897436141967773 228.939727783203125 68 72 135
10.0362892150878906 1.13629639148712158 227.987167358398438 53 45 42
9.07358551025390625 2.48922276496887207 227.9287109375 112 108 104
9.10145473480224609 0.583788812160491943 227.867202758789062 144 131 123
-3.91351866722106934 -7.02392196655273438 229.848297119140625 127 127 153
17.7695865631103516 -4.90979290008544922 231.35992431640625 55 60 144
-5.03922796249389648 -5.38136434555053711 229.582077026367188 57 57 114
6.00822687149047852 -5.45667457580566406 230.491409301757812 69 72 134
4.72813653945922852 9.89800453186035156 231.296493530273438 108 120 146
0.00211208593100309372 -8.66857242584228516 229.875015258789062 110 121 151
-4.09766578674316406 -7.03961706161499023 229.13018798828125 131 133 157
15.5247650146484375 1.3174903392791748 230.969696044921875 59 65 115
1.36371791362762451 -6.73578834533691406 230.167190551757812 62 68 144
0.922056615352630615 -7.01525163650512695 230.2127685546875 70 82 134
2.80175375938415527 -6.96794223785400391 230.315933227539062 86 90 140
1.48228442668914795 -6.85046625137329102 230.220901489257812 112 120 163
-11.5208635330200195 -5.62382793426513672 229.244949340820312 57 60 129
0.571399509906768799 -8.06682300567626953 230.19964599609375 89 107 159
-13.3335695266723633 -5.10370683670043945 228.749908447265625 39 43 140
-6.72906970977783203 -6.52276086807250977 229.478042602539062 87 91 163
-3.77514410018920898 -5.64071559906005859 229.67169189453125 83 91 137
11.5486907958984375 0.760405898094177246 230.4798583984375 145 145 143
-9.99775218963623047 -5.61719703674316406 229.572113037109375 92 101 172
-1.45081245899200439 -5.49777650833129883 230.029876708984375 130 136 188
-11.7951011657714844 4.16874027252197266 229.046432495117188 65 74 142
-5.61127853393554688 -5.39108896255493164 229.690689086914062 84 86 135
-12.8180408477783203 3.07676506042480469 229.477752685546875 69 76 159
9.17160511016845703 2.37459778785705566 227.729965209960938 157 150 143
16.7668895721435547 3.69191408157348633 230.821441650390625 92 97 163
-0.31505545973777771 -7.04288101196289062 230.196914672851562 131 135 169
-7.16669750213623047 -6.47318315505981445 229.498367309570312 58 66 137
15.9391059875488281 1.54748082160949707 231.596023559570312 86 94 156
-3.50436234474182129 -5.68434333801269531 230.416702270507812 80 83 140
2.79628896713256836 -2.42763757705688477 226.901626586914062 126 117 102
-13.4737930297851562 -9.92678928375244141 229.480056762695312 60 73 165
-5.12148141860961914 -5.85682535171508789 229.166839599609375 37 42 134
15.9728870391845703 -5.59270191192626953 230.85882568359375 38 44 132
3.2235100269317627 -6.43546867370605469 230.885452270507812 31 36 136
15.9728870391845703 -5.59270191192626953 230.85882568359375 38 44 132
-14.0152721405029297 -8.88489055633544922 229.244216918945312 73 68 147
-13.1749000549316406 -6.14314174652099609 229.335601806640625 32 36 123
-1.14340794086456299 -7.04356193542480469 229.845779418945312 75 76 137
-12.74444580078125 -2.28504514694213867 229.294158935546875 52 55 133
-9.30751419067382812 -5.91993474960327148 229.688232421875 77 83 160
-11.3305854797363281 -7.87325668334960938 229.624679565429688 159 159 159
-1.37664580345153809 -8.12077617645263672 230.291183471679688 162 164 163
17.1012306213378906 -1.52548527717590332 231.24273681640625 70 78 140
16.8913593292236328 6.20609378814697266 231.117828369140625 43 51 134
6.74159765243530273 -7.62643718719482422 230.551132202148438 166 166 166
14.3367977142333984 -4.84955072402954102 230.547348022460938 111 110 153
-7.88383054733276367 -5.08629703521728516 228.609085083007812 147 147 174
-14.9033622741699219 -7.82285928726196289 229.089706420898438 163 165 162
1.81644296646118164 -1.32801938056945801 227.554519653320312 53 51 39
-4.11317300796508789 -6.23127222061157227 229.246139526367188 39 50 142
2.20780205726623535 -0.8770560622215271 227.169952392578125 135 129 122
17.7410297393798828 -3.86242508888244629 231.142791748046875 158 159 157
11.4652042388916016 -0.0813815146684646606 230.72332763671875 83 81 83
17.339752197265625 6.66524076461791992 230.085769653320312 143 141 154
16.2787189483642578 -2.52387022972106934 230.930877685546875 33 42 132
-12.7071523666381836 0.607679367065429688 229.497146606445312 64 71 153
6.29567146301269531 1.90683114528656006 227.849212646484375 134 130 127
11.5608577728271484 0.443789660930633545 229.50531005859375 84 84 86
-10.8085660934448242 6.26190805435180664 230.05206298828125 163 167 166
12.691314697265625 -5.55749940872192383 231.0003662109375 49 53 151
-13.5095758438110352 -2.0874321460723877 228.997970581054688 63 60 111
15.3663101196289062 7.53368854522705078 230.773101806640625 67 70 122
-12.4933013916015625 3.71669316291809082 227.751998901367188 44 54 143
-14.77117919921875 -4.54497861862182617 229.424957275390625 167 166 165
1.14746487140655518 0.899688780307769775 229.9605712890625 110 124 159
-4.11317300796508789 -6.23127222061157227 229.246139526367188 39 50 142
18.9098052978515625 -5.39678573608398438 230.553482055664062 46 53 145
-11.8341951370239258 2.01437711715698242 229.40960693359375 125 137 167
14.8612451553344727 -4.93844842910766602 230.180191040039062 89 90 157
5.94744110107421875 8.9393463134765625 230.876266479492188 162 163 164
-13.6928300857543945 6.92933130264282227 229.289352416992188 174 176 175
-12.296381950378418 4.77777290344238281 228.439987182617188 72 78 158
-11.5289802551269531 -4.7190546989440918 228.3382568359375 153 155 154
3.80517792701721191 -5.61688899993896484 230.545867919921875 139 142 177
-11.5289802551269531 -4.7190546989440918 228.3382568359375 153 155 154
3.47901153564453125 -6.62883377075195312 230.9801025390625 35 36 131
-13.4855585098266602 -9.93451309204101562 229.654739379882812 63 69 163
0.888518095016479492 3.54331088066101074 229.850738525390625 59 76 132
1.15967142581939697 8.47647571563720703 230.799179077148438 53 71 130
1.28873920440673828 -6.84958171844482422 230.319061279296875 65 73 133
-6.05354118347167969 -6.92098474502563477 230.633651733398438 130 131 170
0.888518095016479492 3.54331088066101074 229.850738525390625 59 76 132
1.92079567909240723 7.21592903137207031 230.638916015625 157 163 161
11.6366739273071289 -6.44331789016723633 230.915542602539062 57 63 129
10.283228874206543 0.869355916976928711 228.926254272460938 145 142 137
0.309486925601959229 9.29782772064208984 231.510772705078125 160 163 166
4.24396514892578125 -6.05897331237792969 229.975051879882812 68 85 167
4.98163270950317383 -6.54160785675048828 230.329727172851562 43 51 133
0.500410914421081543 -4.59418439865112305 230.051895141601562 56 74 135
14.1697254180908203 -6.16845083236694336 230.920272827148438 70 80 133
10.6805639266967773 0.543105244636535645 228.913299560546875 151 148 143
1.12962174415588379 1.39887368679046631 229.9776611328125 113 123 156
-13.9146623611450195 0.427449256181716919 228.4931640625 156 155 152
1.12676358222961426 -6.17322492599487305 231.952117919921875 76 86 163
0.252558499574661255 -12.1842813491821289 230.332763671875 53 65 125
-13.0541038513183594 6.42853069305419922 229.52142333984375 96 94 143
17.3617534637451172 1.72541904449462891 230.614181518554688 148 149 153
4.60121917724609375 -2.32033395767211914 228.177536010742188 63 55 53
6.78345966339111328 1.56423580646514893 228.9697265625 114 114 112
-13.4861536026000977 -2.84081315994262695 229.1461181640625 42 51 140
-4.9627070426940918 -6.32353925704956055 229.758560180664062 32 41 135
-11.7999181747436523 7.65817785263061523 228.678558349609375 46 58 144
-13.3015604019165039 -1.79480242729187012 228.271835327148438 62 65 142
-6.47739934921264648 -6.07352399826049805 229.87982177734375 30 34 123
-13.332890510559082 1.77664387226104736 228.93768310546875 67 71 144
-11.8322505950927734 6.30664491653442383 229.691848754882812 45 49 144
-7.13322353363037109 -5.27460050582885742 229.894638061523438 143 146 165
16.9080352783203125 -8.65754222869873047 231.120559692382812 153 153 165
-13.048090934753418 5.39906644821166992 229.10406494140625 64 67 145
-14.0597667694091797 -5.23080730438232422 229.07476806640625 114 118 154
3.51062989234924316 9.22446537017822266 231.05657958984375 156 160 163
-14.5708370208740234 -6.72844743728637695 229.209930419921875 38 46 145
-3.45741701126098633 6.70020151138305664 229.354873657226562 120 123 114
11.6423187255859375 -5.10305404663085938 230.186492919921875 63 72 139
-8.60707855224609375 -6.24960231781005859 229.923797607421875 61 63 145
-8.89999961853027344 -5.68419027328491211 229.69049072265625 74 75 140
-11.2522926330566406 5.40747451782226562 229.559249877929688 152 159 169
-18.0658931732177734 -6.55940008163452148 229.287612915039062 58 63 144
-13.6774997711181641 -5.07566499710083008 227.733078002929688 80 87 155
8.30780696868896484 -5.59301471710205078 230.256515502929688 69 75 159
16.1206073760986328 -0.805134952068328857 230.961349487304688 69 77 151
4.67655849456787109 0.365944951772689819 229.3836669921875 113 112 110
3.73889064788818359 -2.15588188171386719 227.825897216796875 254 250 235
15.9928684234619141 3.26407670974731445 230.936111450195312 87 94 147
-13.0459766387939453 4.61701726913452148 228.725418090820312 70 71 145
17.6726474761962891 -5.87119770050048828 231.639999389648438 92 95 159
15.1611413955688477 -10.8934612274169922 231.118682861328125 88 90 160
0.248223826289176941 -7.28721523284912109 229.775283813476562 99 113 153
-13.9556550979614258 -7.3552093505859375 229.119400024414062 76 80 143
-13.2833623886108398 -3.42276358604431152 229.342193603515625 55 58 137
1.83893311023712158 9.40532112121582031 230.80548095703125 110 119 159
-12.7813453674316406 1.5831526517868042 229.0106201171875 78 81 162
15.1782617568969727 -8.16245746612548828 231.13189697265625 144 142 165
-12.5875453948974609 -8.94351577758789062 228.980392456054688 63 70 138
-13.3421726226806641 -10.7427845001220703 229.383346557617188 73 80 158
0.586381852626800537 8.32458591461181641 230.500350952148438 101 106 137
5.64396858215332031 -7.01069355010986328 230.156341552734375 139 142 161
-11.9693021774291992 -2.7186133861541748 229.030105590820312 85 91 169
10.8566255569458008 -6.47359848022460938 230.475723266601562 130 136 157
17.8788318634033203 -5.96707916259765625 231.027023315429688 42 43 123
10.8278360366821289 -5.88284730911254883 230.674636840820312 68 76 161
14.8327388763427734 -9.63007545471191406 230.547622680664062 143 143 167
9.13404560089111328 -6.03476953506469727 230.7021484375 28 31 126
-13.9032144546508789 -6.83271884918212891 229.193023681640625 33 39 123
-3.49188232421875 -6.49170446395874023 229.606475830078125 61 68 156
15.5122442245483398 -3.48840999603271484 230.996063232421875 58 67 144
2.85081577301025391 -3.04498982429504395 229.626022338867188 139 134 126
-8.66936302185058594 -6.60260534286499023 228.926910400390625 57 53 127
12.6972970962524414 -5.58536529541015625 230.784194946289062 52 59 150
16.5527763366699219 -0.864651858806610107 230.9716796875 39 44 134
-11.9505443572998047 -0.0683807358145713806 228.521575927734375 50 59 139
-11.7389192581176758 -6.76274442672729492 229.395980834960938 100 101 162
-13.0259828567504883 2.98913764953613281 228.913055419921875 45 53 141
-12.6771306991577148 4.88601303100585938 229.372970581054688 91 96 161
5.47638654708862305 -6.07969331741333008 230.6190185546875 46 52 137
2.52649927139282227 2.14497137069702148 225.720352172851562 162 168 166
-12.60638427734375 5.92986297607421875 230.931488037109375 51 57 152
-11.5542306900024414 -6.76502704620361328 229.472808837890625 78 79 135
16.5731258392333984 -9.74430274963378906 231.412628173828125 76 82 130
8.4080352783203125 8.07062339782714844 231.584152221679688 140 141 135
15.7775688171386719 -3.42919778823852539 230.46893310546875 61 70 149
5.84824895858764648 -6.77985858917236328 230.108734130859375 59 60 143
-12.0656986236572266 -6.72817420959472656 229.519058227539062 65 62 133
11.8130388259887695 0.185807347297668457 230.699172973632812 91 89 92
-0.702266275882720947 -6.05135345458984375 230.623046875 61 60 143
6.60680103302001953 -6.3846888542175293 230.207138061523438 94 105 151
-15.4048080444335938 -5.32980632781982422 229.057754516601562 97 96 128
15.3492612838745117 -5.75652503967285156 230.785369873046875 54 61 139
-13.5333490371704102 -7.38135814666748047 229.276107788085938 75 80 148
-18.2202224731445312 -6.81235933303833008 228.889297485351562 125 125 163
-11.8709182739257812 1.7923053503036499 229.013916015625 123 134 169
-16.0440788269042969 -5.48999404907226562 229.035812377929688 77 78 143
0.835627079010009766 -4.38287878036499023 230.0458984375 111 128 174
-8.23073196411132812 -6.79458999633789062 229.97283935546875 95 97 158
-17.1250762939453125 -6.26414203643798828 229.299118041992188 71 76 153
16.4980983734130859 -3.44675183296203613 231.050872802734375 63 73 150
-12.8959779739379883 6.48307180404663086 229.209747314453125 76 76 149
17.0366916656494141 -2.29847335815429688 231.562957763671875 62 64 139
8.67398357391357422 -6.63780927658081055 230.529953002929688 83 88 154
-18.3718185424804688 -5.57777166366577148 228.732284545898438 112 117 158
-11.9072341918945312 8.67595100402832031 229.536575317382812 45 52 142
13.446934700012207 -5.03211688995361328 230.871612548828125 64 69 133
15.3124418258666992 -4.99698972702026367 231.19219970703125 93 98 157
16.4345474243164062 -10.370513916015625 231.462661743164062 57 62 120
-16.6818866729736328 -6.61780261993408203 228.9989013671875 64 64 127
-13.0021371841430664 -6.17730331420898438 229.34124755859375 45 46 129
-12.4104537963867188 6.46150493621826172 228.988632202148438 49 55 147
-8.39783763885498047 -5.71501922607421875 229.602981567382812 94 103 158
-9.27395915985107422 5.66163301467895508 229.050949096679688 141 139 136
-12.2104740142822266 5.04166984558105469 229.015945434570312 74 76 150
15.3041219711303711 -7.89768505096435547 231.008193969726562 91 98 140
-12.9599056243896484 -4.56722116470336914 229.446212768554688 69 74 152
0.771317422389984131 8.47669792175292969 231.32293701171875 110 120 156
-11.7562999725341797 -0.765675485134124756 229.285797119140625 141 151 160
22.6000251770019531 -6.14763832092285156 230.675735473632812 136 139 158
16.2428512573242188 4.6114954948425293 230.08013916015625 42 52 139
15.3239822387695312 0.700586855411529541 230.2039794921875 147 152 172
-1.69288146495819092 -7.08525943756103516 229.792633056640625 59 59 129
16.9160213470458984 -7.76604795455932617 230.240585327148438 117 120 155
-13.0909786224365234 -3.60935688018798828 229.552215576171875 82 87 155
-17.05059814453125 -5.77608585357666016 228.73876953125 91 94 154
13.3064651489257812 -6.00549459457397461 231.0294189453125 52 61 134
-14.374171257019043 -10.4197397232055664 229.326263427734375 154 150 161
-3.55928730964660645 -7.12752914428710938 229.422927856445312 153 153 161
-0.13757111132144928 -9.09131145477294922 230.082992553710938 94 102 142
17.1991901397705078 -1.35006749629974365 231.096969604492188 88 94 146
15.6251544952392578 -5.50833892822265625 230.554336547851562 28 34 122
-14.401362419128418 -9.51457500457763672 229.09991455078125 151 147 168
-13.5843076705932617 -3.64451980590820312 229.00958251953125 57 64 144
15.6443452835083008 -0.40787997841835022 230.811248779296875 54 63 128
-17.2134361267089844 -5.53022193908691406 228.65399169921875 90 91 145
5.38526439666748047 -1.8425675630569458 227.735641479492188 20 10 12
-13.8467674255371094 -7.90191316604614258 229.2899169921875 61 58 128
-12.9717626571655273 -1.54358410835266113 229.129837036132812 75 85 147
-3.90830349922180176 -5.81920480728149414 229.761962890625 45 53 144
-9.26760196685791016 5.66040658950805664 228.8328857421875 141 139 136
-11.8733806610107422 3.85664772987365723 228.823654174804688 56 63 140
0.774773538112640381 -0.189013779163360596 229.897857666015625 85 101 150
15.5242013931274414 3.42856383323669434 230.844436645507812 79 85 133
-13.453120231628418 -0.151355147361755371 229.136825561523438 72 73 138
-2.79112339019775391 -6.14433717727661133 229.533462524414062 113 121 193
0.145171508193016052 0.132284983992576599 229.868179321289062 132 137 148
-13.2813301086425781 -3.42248344421386719 229.313858032226562 55 58 137
7.24570369720458984 -5.40749835968017578 230.989486694335938 112 117 173
-12.4621906280517578 -2.2790374755859375 228.799468994140625 60 63 140
10.592529296875 -4.98996114730834961 229.8729248046875 127 131 160
3.59381222724914551 -2.56911730766296387 227.58343505859375 255 253 241
-12.9593086242675781 -1.32356560230255127 229.000350952148438 48 54 128
1.12849330902099609 -0.101662017405033112 229.880386352539062 111 124 147
-12.1378974914550781 4.37839841842651367 229.728668212890625 51 54 139
-13.4186859130859375 -0.406760424375534058 228.961578369140625 102 106 160
0.668805241584777832 1.56704795360565186 229.840545654296875 99 112 154
-11.9280614852905273 -5.52838468551635742 229.2900390625 49 57 123
-11.9553813934326172 1.43029749393463135 229.331680297851562 67 75 138
16.7004947662353516 4.04666900634765625 231.04840087890625 71 78 159
-12.1337423324584961 4.10014009475708008 228.936752319335938 43 48 137
17.0742282867431641 -2.57641386985778809 230.82135009765625 105 113 156
0.357081025838851929 5.70998001098632812 229.774566650390625 143 146 151
-11.5035581588745117 5.19088029861450195 228.926193237304688 81 90 152
-14.09539794921875 -10.7969236373901367 229.111282348632812 133 130 174
-12.4367694854736328 6.15395784378051758 230.29974365234375 70 76 162
-12.6486034393310547 6.49629545211791992 229.239456176757812 84 90 168
1.51209676265716553 7.6692194938659668 230.387435913085938 106 119 153
1.82304060459136963 8.47575664520263672 231.66259765625 95 107 142
-11.7175760269165039 3.21886491775512695 226.8553466796875 126 136 183
1.63203418254852295 9.54275894165039062 230.886871337890625 65 78 131
-11.6219959259033203 8.85773277282714844 229.8878173828125 56 64 137
1.17110967636108398 9.88203620910644531 231.172012329101562 53 67 120
-12.2966184616088867 -5.55653238296508789 229.28369140625 34 40 125
16.1469192504882812 2.03549885749816895 230.793594360351562 36 41 127
-16.4463081359863281 -5.43261098861694336 228.8560791015625 84 85 149
0.639782071113586426 -1.38783919811248779 229.903564453125 73 93 144
9.83002567291259766 0.799038350582122803 227.783355712890625 169 157 147
0.701730787754058838 8.92867469787597656 230.752838134765625 70 83 115
9.49042606353759766 0.818281352519989014 227.810958862304688 126 120 103
-1.31146156787872314 -9.14902114868164062 230.038238525390625 147 147 147
8.11281394958496094 -6.179168701171875 230.999786376953125 33 40 121
-2.09170126914978027 -6.50020647048950195 230.05291748046875 39 47 139
17.1250705718994141 0.978795349597930908 230.750579833984375 87 91 154
-5.35727167129516602 -6.10484123229980469 230.001388549804688 77 94 165
2.67933940887451172 -6.98989486694335938 230.292510986328125 115 119 166
-12.1291313171386719 8.61208724975585938 230.792007446289062 78 82 173
0.638528168201446533 -1.38676571846008301 229.892990112304688 73 93 144
7.14342260360717773 -0.46075555682182312 227.44024658203125 82 73 68
-11.9678630828857422 1.82550036907196045 228.551925659179688 58 67 134
17.7927284240722656 -5.79666471481323242 231.131149291992188 70 76 158
15.529688835144043 -9.19759178161621094 230.97998046875 56 58 132
-1.78656256198883057 -6.91889381408691406 230.031509399414062 73 74 160
0.0264460593461990356 -8.78638362884521484 229.893142700195312 82 92 133
16.8248710632324219 -8.99577236175537109 230.896087646484375 143 139 162
16.6963634490966797 -8.99787425994873047 231.227523803710938 78 77 134
-1.31111335754394531 -9.15097808837890625 230.05731201171875 147 147 147
-13.973017692565918 -9.33754539489746094 229.307601928710938 55 58 135
17.4779491424560547 -0.0579545572400093079 231.67449951171875 145 147 157
-13.1377849578857422 -8.66697597503662109 229.493377685546875 35 40 124
4.09691762924194336 -2.36888289451599121 227.36456298828125 64 55 40
-1.38557803630828857 -5.90015459060668945 229.789886474609375 60 72 160
16.6141586303710938 -6.91373395919799805 231.078201293945312 71 80 146
15.4971799850463867 -6.67960882186889648 230.948638916015625 85 91 163
-9.07435417175292969 -6.92930936813354492 229.794235229492188 85 88 139
11.4744701385498047 -6.57594203948974609 229.992919921875 143 140 167
19.5239524841308594 -6.07958889007568359 231.16473388671875 107 110 155
14.6659927368164062 -6.25003194808959961 230.53192138671875 55 58 135
-12.8588123321533203 -3.17693638801574707 229.2066650390625 52 56 130
13.917292594909668 -6.10402679443359375 230.974258422851562 111 119 166
-14.0781593322753906 -11.1446704864501953 229.275955200195312 132 126 164
3.05209779739379883 -6.65961647033691406 230.397308349609375 59 69 159
0.177513927221298218 -10.6152305603027344 229.889358520507812 53 69 121
-14.1489686965942383 -8.49337100982666016 228.72784423828125 138 131 172
5.10516452789306641 -6.33510017395019531 230.879547119140625 68 74 158
-1.2550584077835083 -6.6015934944152832 229.689224243164062 47 51 142
-0.659494161605834961 -6.57959890365600586 230.155517578125 80 88 164
-10.0679988861083984 -6.73807907104492188 228.195938110351562 139 139 174
13.6529331207275391 -6.3628077507019043 230.844573974609375 136 138 154
17.1065044403076172 -5.23263216018676758 230.794158935546875 93 95 156
3.72916078567504883 -2.58104181289672852 227.752334594726562 61 48 30
2.82573723793029785 -5.74124526977539062 230.278411865234375 84 91 145
5.84106016159057617 -5.52479934692382812 230.424468994140625 126 132 184
9.38361167907714844 -5.29693508148193359 230.552108764648438 67 75 137
13.0237131118774414 -4.96384477615356445 230.495437622070312 49 58 133
15.066227912902832 -4.82246160507202148 230.89251708984375 69 69 135
8.68432807922363281 -5.08684349060058594 230.324996948242188 131 138 166
14.6547098159790039 -4.62110042572021484 231.186843872070312 148 149 169
16.7771720886230469 -4.23549032211303711 231.102310180664062 46 51 128
-14.5651235580444336 -6.00558090209960938 229.323074340820312 40 46 133
-15.714961051940918 -5.89063787460327148 229.409423828125 46 52 133
-15.5860719680786133 -5.70181846618652344 229.018692016601562 79 86 159
-16.3007144927978516 -5.63597249984741211 228.507049560546875 92 100 165
