ply
format ascii 1.0
element vertex 683
property float x
property float y
property float z
property uchar red
property uchar green
property uchar blue
end_header
9.94558334350585938 4.10925388336181641 117.709197998046875 144 146 142
5.77121925354003906 3.01754951477050781 105.979705810546875 94 81 65
10.2510976791381836 -1.68139529228210449 117.878456115722656 141 141 140
6.26348543167114258 3.5249168872833252 117.2147216796875 36 36 38
5.04359722137451172 3.51125669479370117 117.617294311523438 18 10 8
10.9821300506591797 -1.41006791591644287 117.715606689453125 140 145 139
10.047764778137207 -0.521335303783416748 117.923744201660156 145 147 146
4.20502281188964844 0.281724393367767334 118.283653259277344 102 98 94
10.0411596298217773 1.35025858879089355 117.773605346679688 86 99 131
4.77400970458984375 2.07056760787963867 117.327156066894531 70 57 32
4.7414555549621582 2.05302619934082031 117.155502319335938 165 164 130
5.58880519866943359 2.96661901473999023 118.205718994140625 13 3 7
6.54797124862670898 3.82216429710388184 116.982444763183594 48 41 34
4.5430455207824707 3.16126871109008789 117.207489013671875 114 105 90
4.24117612838745117 2.89391756057739258 117.366355895996094 62 53 54
9.79972457885742188 4.62043094635009766 117.395477294921875 137 141 142
5.02518033981323242 0.443673223257064819 124.435218811035156 19 15 14
3.63210511207580566 0.344288170337677002 117.033805847167969 107 98 89
5.71369457244873047 3.68158197402954102 118.757896423339844 16 4 0
5.93677473068237305 2.30696964263916016 117.364875793457031 90 90 92
3.62816166877746582 0.940061450004577637 116.978927612304688 126 122 118
1.41504049301147461 1.75922203063964844 118.42974853515625 86 97 131
6.57585668563842773 3.72689604759216309 118.253990173339844 136 128 109
6.43503618240356445 2.72115349769592285 117.207176208496094 30 25 31
6.37217807769775391 3.53547167778015137 117.265815734863281 247 238 209
6.48112630844116211 3.7266385555267334 117.021484375 118 107 73
11.3943767547607422 2.39861607551574707 117.56689453125 65 79 118
4.72434043884277344 2.21294045448303223 117.305160522460938 47 35 9
4.65591144561767578 2.21318364143371582 117.274559020996094 120 113 91
3.64322781562805176 0.169448614120483398 117.609840393066406 124 117 109
5.84369516372680664 0.752238631248474121 116.810646057128906 70 61 52
4.15099954605102539 2.96763396263122559 117.750160217285156 120 109 91
3.65127420425415039 0.277570039033889771 116.930801391601562 66 61 51
6.18610715866088867 1.08281064033508301 117.172447204589844 77 72 66
3.87559127807617188 0.337850272655487061 117.134803771972656 171 157 125
5.45990943908691406 1.49303078651428223 117.787956237792969 60 68 93
9.42080211639404297 2.21956515312194824 117.760208129882812 89 99 126
4.25929737091064453 3.22902917861938477 117.348411560058594 243 255 243
6.12989282608032227 1.0869375467300415 116.920036315917969 98 91 85
5.80576372146606445 3.42801499366760254 119.239898681640625 37 23 9
10.950800895690918 -2.30294322967529297 117.865859985351562 128 131 146
3.77527666091918945 1.29988443851470947 117.801116943359375 108 107 112
4.09015369415283203 0.322614818811416626 115.982704162597656 38 27 25
4.18655252456665039 3.21399545669555664 117.305778503417969 25 37 70
9.82341575622558594 1.1978071928024292 117.556854248046875 140 140 142
1.41504049301147461 1.75922203063964844 118.42974853515625 86 97 131
4.01830625534057617 2.49135327339172363 117.569091796875 138 134 131
10.5102758407592773 -1.06429576873779297 117.808677673339844 65 77 125
5.23357105255126953 0.471692442893981934 129.362197875976562 26 20 22
10.5102758407592773 -1.06429576873779297 117.808677673339844 65 77 125
4.40290069580078125 2.63319253921508789 117.431625366210938 184 181 174
6.1151270866394043 3.7895500659942627 118.443527221679688 77 69 63
4.42231178283691406 0.486382454633712769 93.188751220703125 58 44 37
5.040924072265625 0.454686105251312256 116.957809448242188 23 11 11
4.45411777496337891 0.367002815008163452 108.133949279785156 15 4 2
6.46802949905395508 2.75182843208312988 117.407066345214844 128 127 125
4.20668888092041016 2.9349830150604248 117.292762756347656 55 45 41
4.50112676620483398 3.41181302070617676 117.399673461914062 76 66 54
6.14937591552734375 0.987387895584106445 116.935569763183594 135 126 120
3.58748698234558105 0.39445030689239502 116.959785461425781 84 73 53
10.1469268798828125 2.1648719310760498 117.837196350097656 66 79 122
3.8750152587890625 0.36306038498878479 116.8837890625 63 56 40
5.82816076278686523 0.656302690505981445 116.905242919921875 205 197 188
3.64827370643615723 0.917957186698913574 116.837188720703125 63 62 50
4.36130285263061523 3.09314084053039551 117.240486145019531 107 97 80
6.04620456695556641 0.785111486911773682 116.8546142578125 131 123 112
6.11745166778564453 0.950257241725921631 116.865982055664062 61 54 43
5.73647594451904297 2.48998451232910156 119.068809509277344 15 7 0
6.09041309356689453 0.81963735818862915 116.836082458496094 52 42 34
6.13119268417358398 0.995614707469940186 116.802497863769531 148 140 130
2.40890312194824219 1.13051342964172363 118.10009765625 138 139 141
10.3290863037109375 1.93107128143310547 117.6781005859375 136 140 137
5.97491645812988281 0.723025619983673096 116.94146728515625 136 126 116
5.41439294815063477 2.22298860549926758 117.306190490722656 15 10 16
6.14065265655517578 0.873353362083435059 116.919242858886719 152 143 138
6.66013956069946289 2.50219345092773438 117.394905090332031 65 56 48
4.33004570007324219 2.6774144172668457 117.283599853515625 46 45 50
6.14719295501708984 0.767005264759063721 116.949172973632812 56 48 37
6.24247646331787109 3.49220967292785645 117.201072692871094 116 128 144
4.5701603889465332 3.44729447364807129 126.589096069335938 0 0 0
6.36245012283325195 3.74477958679199219 117.244003295898438 255 251 227
3.91841721534729004 0.422743052244186401 116.868919372558594 60 51 36
4.25644016265869141 2.5094914436340332 117.19464111328125 98 94 85
6.56731986999511719 2.60616517066955566 117.322792053222656 33 33 29
7.92327642440795898 3.36723113059997559 116.809226989746094 140 139 135
6.50451183319091797 2.95736217498779297 117.108634948730469 86 87 81
5.78321456909179688 0.719110965728759766 116.859657287597656 57 51 46
4.69539117813110352 2.16222119331359863 117.251426696777344 102 98 85
9.87686634063720703 1.64398872852325439 117.735328674316406 86 93 122
9.76331806182861328 1.98754119873046875 117.761077880859375 79 92 124
5.99073410034179688 1.30842244625091553 116.615745544433594 63 56 52
6.89734125137329102 2.68210577964782715 117.366241455078125 49 47 40
6.6680755615234375 2.95043063163757324 117.202796936035156 81 84 80
6.44240331649780273 3.81453537940979004 117.13702392578125 68 69 61
3.53577828407287598 0.536015927791595459 117.136116027832031 108 101 89
6.40714645385742188 1.65946543216705322 117.990974426269531 57 72 104
6.26475620269775391 2.35783219337463379 117.639152526855469 90 92 91
8.9236297607421875 2.19441676139831543 117.730247497558594 123 129 139
5.5975947380065918 3.56026458740234375 117.286895751953125 19 10 11
4.26698017120361328 3.1811070442199707 117.48944091796875 253 253 244
4.20470237731933594 1.3851168155670166 117.812515258789062 102 107 110
4.158416748046875 3.25769662857055664 116.711067199707031 44 51 68
11.1992702484130859 2.58154463768005371 117.661247253417969 130 134 139
10.4209394454956055 -2.32451343536376953 117.8570556640625 135 141 137
10.2058277130126953 0.814032077789306641 117.770896911621094 56 68 118
10.2058277130126953 0.814032077789306641 117.770896911621094 56 68 118
8.44672870635986328 1.64343893527984619 118.055091857910156 135 140 136
4.56225919723510742 3.11546564102172852 117.162368774414062 92 85 72
3.84110236167907715 0.429104149341583252 116.90936279296875 65 55 46
10.6758556365966797 -1.82546877861022949 117.854843139648438 61 73 121
3.76816964149475098 0.343099743127822876 116.668487548828125 93 84 67
10.6167945861816406 1.70782291889190674 117.680717468261719 139 143 142
6.11923742294311523 -0.289306282997131348 119.033233642578125 133 137 136
1.20628237724304199 0.999467790126800537 118.708541870117188 139 138 143
6.70863723754882812 2.90385866165161133 116.808113098144531 201 201 180
3.89845371246337891 0.385489702224731445 116.912956237792969 101 93 75
5.42310714721679688 0.484646439552307129 117.040840148925781 83 80 83
7.69661092758178711 1.70063841342926025 117.470054626464844 115 126 146
6.85124492645263672 2.55943584442138672 117.265846252441406 61 49 25
6.46169757843017578 3.88332343101501465 117.733085632324219 104 97 87
6.84348011016845703 2.67275691032409668 117.381813049316406 121 107 89
0.921140611171722412 5.1520838737487793 118.1044921875 82 96 127
5.30776357650756836 3.54983949661254883 115.529502868652344 110 102 89
4.96566915512084961 0.417693614959716797 118.306991577148438 91 89 89
6.14691734313964844 1.11423623561859131 116.814773559570312 61 54 49
5.93828868865966797 0.708570957183837891 116.860649108886719 121 107 86
6.45008993148803711 2.47307872772216797 118.362899780273438 30 20 28
9.87929916381835938 1.39216482639312744 117.701606750488281 124 131 149
6.62547111511230469 3.83636355400085449 117.268760681152344 57 53 45
1.58497202396392822 -0.918618440628051758 118.498634338378906 133 132 137
4.32488822937011719 2.53067731857299805 117.254554748535156 58 50 54
11.1639842987060547 -2.27213835716247559 117.790199279785156 137 142 145
5.91897153854370117 1.66415524482727051 117.654037475585938 115 118 123
11.4751262664794922 2.73147463798522949 117.74224853515625 131 135 136
1.98776638507843018 -0.825749874114990234 118.352142333984375 72 83 116
6.72155523300170898 2.50671935081481934 118.202384948730469 67 56 48
6.40630006790161133 3.63697934150695801 116.977409362792969 47 43 33
4.61615705490112305 2.04878473281860352 117.367538452148438 68 66 44
4.48938131332397461 0.339618593454360962 116.830589294433594 80 76 75
5.93458414077758789 0.653916358947753906 116.929237365722656 59 52 41
6.00378561019897461 1.3348313570022583 116.842918395996094 140 131 130
4.23160552978515625 3.1981804370880127 117.461845397949219 241 250 254
6.06976747512817383 1.28170335292816162 116.857521057128906 57 47 35
6.62379360198974609 2.56362581253051758 117.241241455078125 148 149 141
6.81275844573974609 2.64174818992614746 117.223876953125 78 77 61
6.63282871246337891 3.43774104118347168 117.492141723632812 219 210 199
6.63104677200317383 3.39983439445495605 117.225959777832031 93 90 75
6.71722126007080078 3.17490625381469727 117.394287109375 112 98 69
3.69765210151672363 0.225173294544219971 117.042198181152344 118 117 112
4.75745725631713867 3.44625973701477051 117.827033996582031 40 31 15
4.29548072814941406 2.79596972465515137 117.178863525390625 51 56 58
6.59117412567138672 2.55762887001037598 117.2218017578125 27 25 23
4.64505100250244141 3.03323125839233398 117.265121459960938 33 24 0
6.63006877899169922 3.68964076042175293 117.26171875 50 40 14
6.87701845169067383 2.62982463836669922 117.335700988769531 45 34 22
4.40751791000366211 2.34304547309875488 117.574531555175781 51 43 47
6.55563163757324219 2.47913336753845215 117.444313049316406 27 22 27
6.25815343856811523 3.45126104354858398 117.105972290039062 42 41 46
6.14228057861328125 0.904645740985870361 116.845512390136719 206 193 184
5.08192920684814453 3.50710248947143555 117.24847412109375 13 4 1
6.70280265808105469 3.36328482627868652 117.236412048339844 57 42 21
6.08329343795776367 0.646457970142364502 116.779991149902344 63 53 61
5.16503047943115234 0.427881181240081787 117.87860107421875 84 82 83
6.42543506622314453 2.82098841667175293 117.287811279296875 112 114 113
6.67862892150878906 3.38775873184204102 117.351646423339844 197 180 159
6.21252202987670898 3.77504706382751465 117.430191040039062 29 20 13
6.37051725387573242 3.80213785171508789 117.439994812011719 74 69 75
10.0412988662719727 1.3509138822555542 117.7796630859375 86 99 131
1.57467365264892578 2.46552443504333496 118.2265625 140 141 140
4.50381088256835938 1.25693488121032715 117.765739440917969 45 55 84
4.49384880065917969 2.09729146957397461 117.468276977539062 254 255 255
4.56924676895141602 3.06549358367919922 117.065109252929688 183 182 164
4.47721052169799805 2.53589773178100586 117.367019653320312 108 98 88
3.67140412330627441 0.194432109594345093 117.877677917480469 120 119 114
9.07857418060302734 1.95505070686340332 117.790489196777344 67 80 114
4.19353723526000977 3.14080095291137695 117.263168334960938 73 74 92
4.5549778938293457 3.05423593521118164 117.043319702148438 166 163 154
6.71669864654541016 2.97447538375854492 117.123260498046875 96 99 83
4.80995368957519531 2.17442536354064941 117.3369140625 35 24 18
4.170745849609375 2.52599263191223145 117.686927795410156 127 127 115
9.93878269195556641 1.37626051902770996 117.708404541015625 85 93 112
10.445317268371582 2.44261837005615234 117.729728698730469 128 131 138
9.90256786346435547 3.81386280059814453 117.649337768554688 133 136 141
6.23963117599487305 0.728207588195800781 117.420372009277344 108 112 111
11.7740373611450195 2.73280501365661621 117.828834533691406 137 142 145
5.08342266082763672 3.48316550254821777 117.8089599609375 23 14 10
6.92186975479125977 2.84858083724975586 117.224884033203125 92 91 94
5.87214279174804688 3.62403631210327148 117.418991088867188 21 11 9
5.43165731430053711 2.34651637077331543 118.434501647949219 10 0 3
4.43489885330200195 2.61464762687683105 117.40771484375 80 73 62
7.41117238998413086 1.48049139976501465 117.437095642089844 131 135 136
11.7009658813476562 2.46969938278198242 117.571113586425781 63 74 119
11.7009658813476562 2.46969938278198242 117.571113586425781 63 74 119
11.980860710144043 2.51658201217651367 117.514083862304688 53 66 117
4.40276432037353516 2.34374427795410156 117.310340881347656 51 46 42
1.31763315200805664 2.72494912147521973 118.552818298339844 84 98 126
11.9830589294433594 2.51734209060668945 117.535842895507812 53 66 117
9.76900672912597656 3.39516854286193848 117.690086364746094 77 89 129
11.6659412384033203 2.13503289222717285 117.740852355957031 139 144 147
11.9570960998535156 2.19730329513549805 117.653030395507812 135 141 137
6.06042337417602539 3.57304787635803223 117.84869384765625 23 12 16
5.59312629699707031 2.93409872055053711 118.137039184570312 12 1 5
6.60246992111206055 3.21427512168884277 117.42919921875 123 120 111
3.77696347236633301 0.439651787281036377 116.998786926269531 51 44 26
6.52005338668823242 3.22949409484863281 117.697380065917969 186 183 171
5.96924066543579102 0.783819139003753662 116.904563903808594 165 158 147
6.10652446746826172 0.721542656421661377 116.876296997070312 119 111 100
6.130096435546875 3.64896535873413086 117.514984130859375 18 7 7
4.46348428726196289 3.21426630020141602 117.371925354003906 122 107 83
4.43787622451782227 2.34506916999816895 117.333969116210938 149 153 139
6.83877944946289062 2.77017927169799805 117.266265869140625 52 44 28
6.10018587112426758 -0.269294321537017822 116.894660949707031 140 142 139
6.75468826293945312 3.01701116561889648 117.248306274414062 120 108 86
6.55359983444213867 2.44628286361694336 117.447784423828125 83 83 78
5.55944585800170898 3.17837166786193848 105.309783935546875 76 65 66
6.33030223846435547 3.45647549629211426 117.256210327148438 145 144 113
6.55692911148071289 3.89477014541625977 117.518661499023438 110 97 82
3.70229506492614746 0.347028970718383789 117.002365112304688 77 76 71
3.64425325393676758 0.445957958698272705 117.005081176757812 57 48 33
9.69836521148681641 2.06811237335205078 117.846786499023438 98 112 141
6.01693105697631836 0.728666245937347412 116.819465637207031 61 53 37
7.01128482818603516 2.57534980773925781 117.40740966796875 109 113 117
6.76631689071655273 3.05299139022827148 117.258636474609375 65 55 31
6.65777254104614258 2.87329888343811035 116.924270629882812 107 109 104
3.55873560905456543 0.529841482639312744 116.8961181640625 74 60 38
6.13153648376464844 0.817921280860900879 116.862770080566406 156 146 134
4.41235017776489258 2.12893414497375488 117.213958740234375 49 51 67
6.14850187301635742 1.11601996421813965 117.576805114746094 69 65 56
3.42454838752746582 1.14697825908660889 117.87481689453125 62 73 100
3.67038559913635254 0.478578746318817139 116.985748291015625 79 71 69
6.78661394119262695 2.98451900482177734 117.190963745117188 62 51 34
5.31276321411132812 3.3327338695526123 108.760665893554688 34 22 6
6.84169721603393555 2.60730457305908203 117.60736083984375 178 165 131
5.89288520812988281 0.763499438762664795 116.910385131835938 78 74 62
6.79752540588378906 2.84561395645141602 117.399032592773438 117 104 85
6.07036590576171875 1.19949519634246826 116.754425048828125 71 70 65
1.7549750804901123 -0.85254746675491333 118.343498229980469 61 68 103
4.54866838455200195 2.00049233436584473 117.234443664550781 60 59 59
1.77240312099456787 -0.470969110727310181 118.289398193359375 78 89 121
6.42312002182006836 3.29419064521789551 117.067947387695312 99 90 78
6.65025138854980469 2.53667330741882324 117.34661865234375 183 175 172
3.54040718078613281 0.909027576446533203 116.917327880859375 76 63 54
4.34052371978759766 1.95050215721130371 117.551872253417969 127 131 117
3.61194491386413574 0.619535386562347412 116.864501953125 70 60 51
6.14113521575927734 0.709458649158477783 116.877395629882812 56 45 43
5.95113897323608398 1.32971704006195068 116.807952880859375 121 113 102
5.15300083160400391 0.469317913055419922 120.826202392578125 20 11 9
3.79679584503173828 0.314848124980926514 116.975601196289062 208 199 190
4.72714567184448242 2.02169585227966309 117.108917236328125 66 62 50
4.61820030212402344 3.1157374382019043 117.311203002929688 60 30 3
8.46408367156982422 1.919525146484375 117.797859191894531 69 82 120
4.36157989501953125 2.73259329795837402 117.292144775390625 96 90 104
11.3973760604858398 2.40001320838928223 117.639556884765625 65 79 118
8.36984443664550781 1.94052648544311523 117.843254089355469 98 112 138
8.36784458160400391 1.93696749210357666 117.74139404296875 98 112 138
4.43677186965942383 0.356905668973922729 117.364631652832031 23 18 17
6.42107486724853516 2.49096941947937012 118.189010620117188 79 70 75
4.31518888473510742 3.1157684326171875 117.146697998046875 253 253 227
3.64100241661071777 0.229729756712913513 116.974380493164062 117 108 101
4.30758094787597656 0.322377145290374756 108.18170166015625 84 77 71
6.08276510238647461 0.738896608352661133 116.9666748046875 57 51 41
6.50248146057128906 3.88339376449584961 117.35296630859375 101 98 92
6.08905935287475586 1.06480705738067627 116.805160522460938 76 72 61
4.03069972991943359 0.280916959047317505 117.766212463378906 95 82 73
6.87274694442749023 2.49675822257995605 117.379219055175781 90 90 99
4.93908119201660156 2.40054607391357422 88.671051025390625 104 105 97
4.7592768669128418 0.391831845045089722 117.864402770996094 71 68 64
6.8200688362121582 2.74204492568969727 117.24566650390625 121 111 86
6.2451634407043457 3.49375820159912109 117.198738098144531 111 115 139
6.63303470611572266 2.63097763061523438 117.556999206542969 97 99 96
4.60466098785400391 2.54967284202575684 117.21783447265625 89 87 74
4.42487382888793945 2.38464546203613281 117.556266784667969 147 153 153
5.92349386215209961 0.781388819217681885 116.754447937011719 67 65 52
8.72987556457519531 2.08277273178100586 117.742889404296875 76 86 120
6.50095176696777344 3.05600237846374512 117.397026062011719 90 90 82
4.48326683044433594 3.08980107307434082 117.198982238769531 114 117 126
5.82080745697021484 3.48430466651916504 117.967910766601562 38 28 4
6.39751386642456055 2.39757394790649414 117.450126647949219 88 88 88
3.55564260482788086 0.830076098442077637 116.904914855957031 103 93 86
6.62758350372314453 3.29470467567443848 117.12603759765625 76 75 63
5.58807182312011719 3.34005355834960938 115.156806945800781 36 42 66
6.49179744720458984 3.52024388313293457 116.954032897949219 140 136 99
4.39486455917358398 2.6850123405456543 117.453392028808594 108 109 95
8.88628387451171875 1.83720457553863525 117.673454284667969 115 124 137
6.7910609245300293 2.61479640007019043 117.226310729980469 177 173 156
6.6540522575378418 2.91263222694396973 116.965339660644531 194 192 190
1.18824160099029541 1.89685153961181641 118.15509033203125 141 139 143
6.01581382751464844 0.599961936473846436 116.814926147460938 98 93 89
5.82413721084594727 2.24749755859375 110.308212280273438 30 9 17
10.675328254699707 -1.81758499145507812 117.860618591308594 60 72 119
3.51498055458068848 0.829017877578735352 116.6688232421875 70 58 47
6.60848188400268555 2.52309918403625488 117.368881225585938 106 97 102
13.1839208602905273 2.72633671760559082 117.909637451171875 72 85 130
5.55490589141845703 3.76542544364929199 123.521583557128906 38 22 8
4.72794485092163086 2.24190735816955566 95.3990859985351562 86 74 36
4.65517473220825195 2.5703425407409668 117.301948547363281 129 128 109
5.39960527420043945 0.482336610555648804 117.464057922363281 81 81 82
6.70890331268310547 3.13082027435302734 117.077110290527344 95 98 81
3.54134130477905273 0.674024999141693115 116.962440490722656 83 70 55
7.45883512496948242 1.78318023681640625 117.793128967285156 60 72 112
4.83108282089233398 0.361575663089752197 120.186607360839844 86 85 83
4.42193889617919922 3.3022911548614502 117.151908874511719 255 255 199
3.99529647827148438 2.95739555358886719 118.189552307128906 139 140 134
4.69164848327636719 2.64487314224243164 117.265708923339844 117 107 76
4.34468746185302734 2.69523072242736816 116.825935363769531 153 155 150
5.31277322769165039 0.494360387325286865 117.198516845703125 18 11 9
9.61798381805419922 2.18903017044067383 117.842422485351562 109 121 146
3.67606925964355469 0.944498538970947266 117.044418334960938 137 135 130
6.27232551574707031 1.35857725143432617 117.875808715820312 100 99 107
5.93814373016357422 0.676621973514556885 116.785575866699219 138 129 114
6.13274955749511719 1.28645265102386475 116.925712585449219 53 45 34
4.61639070510864258 2.00498723983764648 117.576332092285156 56 56 49
4.49731922149658203 2.87522506713867188 117.02197265625 94 88 66
4.76256942749023438 2.42720913887023926 117.466545104980469 91 81 54
4.38574504852294922 2.75573635101318359 117.272384643554688 136 128 125
6.39522790908813477 3.65822219848632812 117.311607360839844 234 234 224
5.27361679077148438 2.11046171188354492 117.702369689941406 94 96 95
6.15716075897216797 0.951044857501983643 116.979293823242188 215 201 198
4.43863821029663086 2.6613612174987793 117.458488464355469 90 92 81
6.09054231643676758 0.718028604984283447 116.654487609863281 132 121 119
4.41604709625244141 3.22682905197143555 117.46978759765625 110 96 61
6.69954252243041992 3.22462201118469238 117.246749877929688 130 115 96
6.49636220932006836 3.20262622833251953 117.050888061523438 130 129 124
6.37967538833618164 3.40306949615478516 117.378387451171875 94 90 80
6.54274082183837891 3.13291335105895996 117.6116943359375 115 116 100
6.69541454315185547 3.29173541069030762 117.384689331054688 135 129 111
5.81695222854614258 2.29090142250061035 110.018768310546875 212 202 206
6.61575555801391602 2.65937495231628418 117.150947570800781 116 118 113
6.84260129928588867 2.60639786720275879 117.426170349121094 199 191 172
8.88448333740234375 2.15273737907409668 117.524993896484375 83 91 109
4.53750228881835938 2.90331768989562988 117.313980102539062 105 95 86
4.43395662307739258 2.61224842071533203 117.324928283691406 86 81 85
6.57335710525512695 3.58328938484191895 117.035102844238281 176 169 146
3.55607342720031738 0.312742054462432861 116.634536743164062 122 115 99
4.60135650634765625 2.94404482841491699 117.091163635253906 118 123 101
1.72969162464141846 2.94348621368408203 118.418411254882812 142 143 138
6.49315118789672852 3.62269949913024902 117.11712646484375 105 102 97
6.49219465255737305 3.02161550521850586 117.255538940429688 129 131 120
1.62925517559051514 0.55663907527923584 118.226692199707031 55 67 119
4.32594203948974609 2.55045843124389648 117.436782836914062 56 43 35
6.24191761016845703 3.7483522891998291 117.607925415039062 46 32 29
4.37273788452148438 2.90390706062316895 117.396133422851562 53 58 48
10.1018056869506836 2.33493280410766602 117.656997680664062 106 118 131
3.20306277275085449 1.04490756988525391 118.606414794921875 59 67 114
2.08818316459655762 -0.693768620491027832 117.993614196777344 128 132 135
4.74147987365722656 3.03459262847900391 117.600303649902344 26 15 10
1.16412341594696045 3.27786827087402344 118.280433654785156 76 90 119
5.47695350646972656 3.63494396209716797 116.962104797363281 100 93 87
2.67472362518310547 0.923060715198516846 117.99554443359375 72 84 124
2.83630537986755371 1.20491695404052734 118.319694519042969 134 136 135
7.25665712356567383 1.7327805757522583 117.786941528320312 74 88 124
7.25665712356567383 1.7327805757522583 117.786941528320312 74 88 124
5.34589433670043945 0.505029976367950439 117.222450256347656 14 10 7
4.96356487274169922 2.20967221260070801 118.424285888671875 196 187 179
5.90283203125 3.82647013664245605 121.345733642578125 92 82 71
1.72323942184448242 0.016092522069811821 118.19915771484375 61 72 118
3.24036669731140137 0.740169227123260498 116.61968994140625 129 126 121
3.8349909782409668 0.425789803266525269 116.513946533203125 68 65 52
12.6621494293212891 2.65507340431213379 117.580421447753906 62 75 118
12.6621494293212891 2.65507340431213379 117.580421447753906 62 75 118
4.33580636978149414 2.82054734230041504 117.389305114746094 245 252 252
10.8146066665649414 -0.546686112880706787 117.673187255859375 138 143 146
12.2532377243041992 2.93834543228149414 117.63348388671875 140 142 140
1.90096461772918701 1.16928660869598389 118.819618225097656 137 138 142
3.76361465454101562 1.09261322021484375 119.042701721191406 50 53 70
6.52476167678833008 2.96704864501953125 117.397972106933594 85 87 74
3.8704826831817627 2.12059259414672852 117.963905334472656 143 143 141
4.23560953140258789 2.8189539909362793 117.31719970703125 48 49 41
7.68523168563842773 0.515988826751708984 117.023666381835938 120 121 117
4.85259866714477539 0.429297119379043579 116.966461181640625 12 4 4
2.00208234786987305 0.426087737083435059 118.347755432128906 138 139 141
3.91147279739379883 0.386238425970077515 116.972923278808594 105 97 87
3.58923101425170898 0.814370572566986084 117.083755493164062 69 62 54
6.70297718048095703 2.92036557197570801 117.367095947265625 213 214 201
4.35454750061035156 2.73958182334899902 117.120979309082031 94 90 81
6.85059022903442383 2.71691632270812988 117.277885437011719 31 27 11
4.67589902877807617 2.91815328598022461 117.470382690429688 98 87 66
1.39208412170410156 1.96755135059356689 118.166984558105469 81 92 122
6.51134777069091797 2.66803431510925293 117.256629943847656 89 91 88
6.44490861892700195 3.33899521827697754 117.221214294433594 92 92 88
2.46375656127929688 1.59001576900482178 64.0667572021484375 43 40 49
6.74626445770263672 3.1633756160736084 117.330711364746094 56 49 23
6.74092531204223633 3.19841599464416504 117.412765502929688 55 48 26
6.31904458999633789 3.70601177215576172 117.178688049316406 39 30 23
5.61385154724121094 0.565303623676300049 116.875785827636719 30 22 19
6.58234882354736328 3.73573517799377441 117.43902587890625 255 255 210
5.63779020309448242 2.24213862419128418 117.239753723144531 89 87 97
4.61948251724243164 3.00386548042297363 117.162345886230469 119 109 88
4.3859100341796875 2.7583308219909668 117.1854248046875 127 122 106
4.61271429061889648 2.64676713943481445 117.165664672851562 128 122 112
4.5650019645690918 2.95641136169433594 117.170013427734375 142 134 121
4.39305686950683594 3.25908279418945312 117.719818115234375 255 253 196
6.30480241775512695 2.39017510414123535 118.028961181640625 86 84 87
4.33172988891601562 3.34720301628112793 117.787544250488281 42 58 71
1.71209347248077393 0.362676501274108887 118.326988220214844 98 112 138
6.40461969375610352 3.55794739723205566 117.350334167480469 89 86 76
5.82060718536376953 0.568598568439483643 117.422966003417969 100 99 95
4.62266063690185547 2.14757061004638672 117.38275146484375 59 62 62
4.76537418365478516 3.16748666763305664 117.201507568359375 218 208 190
10.6795272827148438 -1.33527350425720215 117.736930847167969 84 97 125
6.08501148223876953 1.20366501808166504 116.997886657714844 71 68 58
6.17946863174438477 0.758165895938873291 117.319503784179688 62 57 53
3.71345257759094238 0.440160065889358521 116.970695495605469 52 44 36
6.51825857162475586 3.43730640411376953 117.12554931640625 100 101 86
6.67376995086669922 2.48803257942199707 116.369735717773438 65 59 46
3.65052485466003418 0.942487061023712158 117.005912780761719 131 128 123
4.07578134536743164 3.26607084274291992 117.802276611328125 127 128 122
1.60284411907196045 1.49607980251312256 117.645347595214844 129 136 144
9.56688976287841797 4.94262075424194336 117.592689514160156 120 131 151
5.59149646759033203 0.52574920654296875 117.028404235839844 101 101 100
1.52700626850128174 1.58032691478729248 118.296127319335938 88 98 133
4.48316431045532227 3.34507608413696289 119.31500244140625 255 253 190
10.003727912902832 1.8512650728225708 117.689567565917969 64 78 123
2.70976018905639648 0.673957228660583496 118.070579528808594 142 144 141
10.2698373794555664 0.401543498039245605 117.778106689453125 66 77 122
1.00838744640350342 2.46517682075500488 118.406806945800781 141 141 139
9.41809177398681641 3.97693157196044922 118.092529296875 135 141 139
1.7731623649597168 -0.469990372657775879 118.329948425292969 78 85 127
8.53808212280273438 2.5430450439453125 118.298477172851562 142 142 142
3.55739212036132812 0.84036785364151001 116.97906494140625 104 97 83
4.80342912673950195 -0.529540956020355225 117.216354370117188 138 139 136
3.87553572654724121 0.3365325927734375 117.050735473632812 182 172 146
6.11135482788085938 0.695059835910797119 116.796379089355469 56 48 45
3.92970108985900879 2.04752802848815918 117.80328369140625 145 149 146
4.46482276916503906 3.04384136199951172 117.049644470214844 127 123 98
4.74220561981201172 2.05311751365661621 117.178421020507812 165 164 130
4.48157310485839844 2.3804318904876709 117.791412353515625 93 88 76
6.13454484939575195 2.44562792778015137 125.690719604492188 73 74 79
5.48906898498535156 0.49932137131690979 117.100662231445312 102 101 96
6.37247180938720703 2.99632096290588379 117.177452087402344 102 98 99
6.71228933334350586 3.41461944580078125 117.393836975097656 53 42 22
3.80455613136291504 0.316545814275741577 117.058631896972656 255 252 240
5.90888118743896484 2.33158016204833984 117.185760498046875 13 6 14
4.32681655883789062 2.81451869010925293 117.151023864746094 238 254 255
3.73702335357666016 0.391720950603485107 116.414718627929688 185 177 158
4.91494894027709961 0.441873788833618164 109.617073059082031 20 16 17
5.83325099945068359 3.90639066696166992 126.104324340820312 98 91 81
6.67314767837524414 3.52986693382263184 117.273773193359375 67 55 43
5.58510684967041016 2.26230192184448242 117.334205627441406 15 11 12
5.46537065505981445 0.483141332864761353 118.077423095703125 95 88 88
10.1126155853271484 0.397619456052780151 117.869308471679688 119 125 140
4.22361564636230469 3.02252340316772461 117.32855224609375 45 53 87
4.36089181900024414 0.455773383378982544 116.591926574707031 68 58 59
1.63850367069244385 -0.703440546989440918 118.342697143554688 84 92 111
1.66572856903076172 0.925928115844726562 118.413505554199219 111 116 136
4.49741458892822266 2.09095335006713867 117.311775207519531 233 241 242
4.67576789855957031 2.58778810501098633 117.065879821777344 115 108 90
6.91447591781616211 2.57595038414001465 117.332809448242188 53 49 50
4.48261070251464844 2.99620294570922852 117.52264404296875 110 103 85
6.30961227416992188 2.93988513946533203 117.348495483398438 16 8 14
4.38446235656738281 2.75610017776489258 117.286865234375 130 124 108
1.79910004138946533 0.783752262592315674 118.225677490234375 66 75 118
1.7993854284286499 0.78318256139755249 118.205863952636719 66 75 118
4.38283061981201172 2.62013888359069824 117.206344604492188 112 114 103
2.32947397232055664 0.66738361120223999 118.030799865722656 133 132 138
13.2679948806762695 2.48511815071105957 117.270065307617188 133 133 132
4.29921150207519531 2.89885950088500977 117.224952697753906 103 100 111
12.2603330612182617 2.89893436431884766 117.911148071289062 138 142 143
13.1839208602905273 2.72633671760559082 117.909637451171875 72 85 130
6.0491032600402832 3.54993343353271484 117.854843139648438 21 10 14
6.01286888122558594 3.50503993034362793 117.237770080566406 0 0 0
3.52702617645263672 0.857624709606170654 116.948097229003906 62 54 42
4.25951242446899414 3.22396445274353027 117.367637634277344 220 228 219
10.2487220764160156 2.56352758407592773 117.583717346191406 124 128 126
6.38138294219970703 3.55916500091552734 117.1619873046875 70 66 53
3.5737910270690918 0.650928795337677002 116.895362854003906 91 90 82
3.57538580894470215 0.649445056915283203 116.886192321777344 91 90 82
4.38518714904785156 3.09025931358337402 116.7911376953125 156 151 129
4.9969630241394043 3.46329760551452637 115.398292541503906 103 96 80
4.67970991134643555 2.0132448673248291 117.597450256347656 53 58 52
4.64464187622070312 2.04801321029663086 117.309249877929688 81 75 58
4.58533334732055664 2.4035637378692627 117.189002990722656 116 107 98
3.67083740234375 0.251734733581542969 117.152610778808594 54 49 45
4.38468122482299805 2.54823160171508789 117.308326721191406 112 112 114
6.28988838195800781 3.56894207000732422 151.3448486328125 103 103 103
6.66416263580322266 3.01394510269165039 117.276123046875 85 82 74
6.44306278228759766 2.89034485816955566 117.459053039550781 92 92 84
6.33651971817016602 3.24452853202819824 117.337242126464844 100 100 100
6.61052513122558594 3.67642951011657715 117.355278015136719 139 134 108
5.92894744873046875 0.731121361255645752 117.315475463867188 116 108 95
6.12715387344360352 1.08613288402557373 116.995697021484375 94 86 75
6.09952640533447266 1.11747002601623535 116.876907348632812 73 65 54
6.448150634765625 2.44902396202087402 116.520149230957031 24 14 17
5.82458209991455078 0.727292299270629883 116.811203002929688 115 109 96
5.1375422477722168 3.57081913948059082 117.663238525390625 106 98 87
4.34809064865112305 3.2979128360748291 116.672050476074219 254 254 242
6.72768688201904297 3.66720890998840332 117.27911376953125 46 41 35
6.15737819671630859 0.628367424011230469 117.238639831542969 98 98 96
6.17242860794067383 3.64885282516479492 117.719772338867188 26 15 14
4.6102442741394043 2.54191994667053223 117.295478820800781 90 88 75
6.68908596038818359 2.70818638801574707 117.170272827148438 93 90 83
10.7231359481811523 -1.22560358047485352 117.983772277832031 120 128 146
4.92014598846435547 2.12298369407653809 117.787712097167969 24 18 26
3.74472951889038086 0.444765806198120117 117.020698547363281 66 58 45
5.43911314010620117 3.61775660514831543 116.364601135253906 103 96 87
4.46181917190551758 2.03180289268493652 117.123588562011719 121 116 138
6.14770174026489258 3.62602925300598145 116.231391906738281 70 61 54
8.535400390625 2.28519916534423828 118.014900207519531 138 140 139
1.51279473304748535 0.647792339324951172 118.461051940917969 67 78 124
5.18111896514892578 3.54651117324829102 118.091262817382812 23 14 1
7.68255710601806641 0.497292429208755493 116.959144592285156 139 143 142
6.66579103469848633 2.91052556037902832 117.145820617675781 186 178 155
5.89890050888061523 1.28777587413787842 116.889640808105469 73 70 63
4.57201719284057617 3.42268157005310059 117.288986206054688 98 94 80
1.254050612449646 0.679022490978240967 118.270462036132812 60 71 116
5.5781702995300293 3.79176878929138184 123.272773742675781 97 90 82
3.60236740112304688 0.491646379232406616 116.915847778320312 89 79 67
5.11233043670654297 3.51737213134765625 117.666305541992188 6 2 0
5.00814342498779297 2.14026141166687012 118.229934692382812 74 66 70
4.64966249465942383 2.98606228828430176 117.217674255371094 31 15 0
5.24556922912597656 0.463630408048629761 128.6439208984375 84 85 80
4.51185512542724609 3.37552690505981445 117.302711486816406 79 66 56
6.24189662933349609 3.49494218826293945 117.201820373535156 158 151 143
6.48512411117553711 3.84393477439880371 117.191612243652344 62 54 51
6.6229548454284668 3.78597307205200195 117.255416870117188 54 47 36
3.60124015808105469 0.32566031813621521 116.938003540039062 71 63 53
4.63894987106323242 2.18440103530883789 117.120704650878906 123 125 114
4.61346006393432617 2.25371527671813965 118.254035949707031 120 116 99
6.10446739196777344 1.34320855140686035 116.805694580078125 54 49 48
4.46127510070800781 2.45395302772521973 117.700508117675781 97 98 82
4.58834314346313477 0.338617146015167236 107.519638061523438 83 80 81
4.43941211700439453 2.66827154159545898 117.472526550292969 95 96 89
5.68903970718383789 3.64654874801635742 117.45892333984375 33 22 16
6.77573680877685547 3.6922917366027832 117.386405944824219 94 93 91
3.74951457977294922 0.402364641427993774 116.796310424804688 184 172 155
4.6162867546081543 2.64906954765319824 117.212905883789062 117 112 93
4.88349533081054688 2.03645515441894531 117.5146484375 88 88 88
8.39684581756591797 1.71990406513214111 117.87945556640625 138 141 150
3.77602243423461914 0.288284718990325928 117.072914123535156 55 53 40
5.37552452087402344 4.13256168365478516 117.894508361816406 141 148 140
6.12922191619873047 1.24170076847076416 117.014549255371094 56 48 45
3.91328144073486328 0.415159761905670166 116.92950439453125 63 54 41
6.49687099456787109 2.42650485038757324 117.444633483886719 79 79 77
6.76249504089355469 2.93907022476196289 117.613487243652344 159 156 124
10.416813850402832 0.968173325061798096 117.640708923339844 130 133 140
4.66899013519287109 2.07807064056396484 117.585380554199219 255 251 238
4.40009737014770508 3.12802577018737793 117.192733764648438 149 141 122
4.70758438110351562 2.75040817260742188 117.484535217285156 35 25 13
3.52084732055664062 0.764664411544799805 116.735145568847656 77 68 55
3.52632617950439453 0.728447139263153076 116.826896667480469 67 59 46
10.8441629409790039 2.5334172248840332 117.559013366699219 128 132 135
4.60052680969238281 3.08041167259216309 117.246185302734375 144 132 110
6.55459737777709961 2.75113463401794434 117.149765014648438 96 86 84
6.5722661018371582 2.64324188232421875 117.288063049316406 38 34 34
4.51067543029785156 2.47058653831481934 117.494705200195312 45 43 31
4.67688608169555664 2.88141703605651855 117.133522033691406 15 10 5
6.42992067337036133 3.5931696891784668 117.040504455566406 123 125 114
6.06115436553955078 3.73316526412963867 118.318702697753906 11 2 2
4.36517953872680664 2.70599651336669922 117.47698974609375 144 146 141
3.79535222053527832 0.420110911130905151 116.818702697753906 132 125 109
4.96422624588012695 0.416232794523239136 115.997787475585938 88 80 78
3.53401398658752441 0.746287345886230469 116.270416259765625 94 85 76
4.55658149719238281 2.19935345649719238 117.257217407226562 88 89 83
4.55023527145385742 2.38136458396911621 117.313438415527344 130 123 115
6.47576570510864258 2.65831327438354492 117.164840698242188 28 21 23
1.05710434913635254 3.79907321929931641 118.256744384765625 67 78 123
5.73861122131347656 3.49550414085388184 116.803955078125 70 59 61
4.41267824172973633 0.316755294799804688 117.405059814453125 104 100 97
4.31843805313110352 2.96755194664001465 117.491752624511719 255 251 246
8.98773193359375 2.16245293617248535 117.694900512695312 71 85 113
5.88184499740600586 1.31015479564666748 116.835411071777344 211 207 199
5.26037693023681641 3.66273999214172363 122.74066162109375 35 29 13
6.90769052505493164 2.48491883277893066 117.081329345703125 101 101 99
4.50769567489624023 2.39407658576965332 117.00537109375 124 121 99
9.77755451202392578 5.11531543731689453 117.741981506347656 136 140 139
4.34924077987670898 2.91663360595703125 117.4119873046875 68 72 68
3.70000171661376953 0.284574419260025024 117.071800231933594 50 38 26
8.28373241424560547 1.88420045375823975 117.634681701660156 69 83 118
6.17994022369384766 3.65283942222595215 117.780342102050781 30 19 17
7.47385025024414062 1.75313544273376465 117.891197204589844 91 106 139
6.55553531646728516 2.67796921730041504 117.274772644042969 103 98 95
6.87542533874511719 2.5289921760559082 117.133049011230469 54 45 48
4.34916257858276367 2.87116122245788574 117.614425659179688 129 135 134
4.37065744400024414 2.90227174758911133 117.359451293945312 53 58 48
4.39427661895751953 3.35168218612670898 117.483070373535156 63 65 69
6.27010536193847656 3.39877033233642578 117.141281127929688 28 24 19
6.29310894012451172 3.49920558929443359 116.6502685546875 119 118 91
4.59209680557250977 0.400447934865951538 114.059280395507812 23 14 17
5.53419876098632812 0.536998093128204346 116.731124877929688 18 10 7
5.99566459655761719 0.685351014137268066 116.836158752441406 47 36 18
4.4946904182434082 2.04630112648010254 117.199600219726562 85 85 87
6.80589628219604492 2.78626132011413574 117.509552001953125 136 133 113
3.92058181762695312 0.3478812575340271 117.193923950195312 127 113 100
4.26494216918945312 3.18156003952026367 117.493125915527344 253 255 247
5.93353128433227539 0.746755063533782959 116.881721496582031 108 102 92
4.76589345932006836 3.16588830947875977 117.190292358398438 222 210 183
4.88567113876342773 2.89571332931518555 116.983985900878906 43 32 39
9.64171028137207031 4.04376649856567383 117.722908020019531 71 87 120
4.95834207534790039 2.19704294204711914 118.30072021484375 196 187 179
7.46315670013427734 1.91909980773925781 117.6895751953125 125 128 145
5.7902531623840332 3.70489621162414551 117.492111206054688 94 89 83
4.36211395263671875 2.41179418563842773 117.350746154785156 49 47 51
1.72014343738555908 0.647281825542449951 118.313751220703125 96 108 141
4.96300506591796875 0.411543458700180054 117.035232543945312 92 89 84
1.58337199687957764 1.00969445705413818 118.126296997070312 86 95 124
4.47675704956054688 2.27024507522583008 117.428962707519531 130 128 113
5.67870664596557617 2.32472634315490723 117.829200744628906 21 9 11
3.49263763427734375 0.412976503372192383 116.294204711914062 127 120 109
2.10244560241699219 -1.06717264652252197 118.221229553222656 126 126 135
1.59220504760742188 2.11243128776550293 118.508186340332031 135 139 142
10.2882452011108398 -0.817286491394042969 117.921180725097656 126 128 131
1.64072775840759277 1.86247408390045166 118.384361267089844 140 142 141
1.41430211067199707 3.10327720642089844 118.193717956542969 136 143 139
1.16412341594696045 3.27786827087402344 118.280433654785156 76 90 119
0.990594625473022461 4.40569400787353516 118.242790222167969 77 89 127
1.25060820579528809 4.45406532287597656 118.425148010253906 150 152 149
1.19701910018920898 0.360582858324050903 118.369743347167969 131 131 140
1.34147226810455322 2.28502058982849121 118.445350646972656 79 88 117
6.57734251022338867 2.87243437767028809 117.209220886230469 105 105 91
2.10514926910400391 -0.0855973586440086365 118.550811767578125 146 146 144
6.9689021110534668 2.5532073974609375 117.356910705566406 60 59 66
6.39076948165893555 2.88610196113586426 117.100227355957031 118 120 119
6.49218940734863281 3.86717438697814941 116.968025207519531 99 100 86
6.16432952880859375 1.03914213180541992 117.1640625 179 171 160
4.47416448593139648 2.42574477195739746 117.224014282226562 86 79 64
3.48026823997497559 0.873820662498474121 117.036567687988281 105 101 95
4.5337681770324707 2.35004091262817383 117.219131469726562 92 85 69
4.91683387756347656 2.3690485954284668 117.294479370117188 17 7 4
4.45076560974121094 2.53687191009521484 116.645484924316406 91 93 71
4.48087453842163086 2.57995867729187012 117.36932373046875 138 141 120
4.46894598007202148 2.57519841194152832 117.174049377441406 138 141 120
4.63854265213012695 2.97897005081176758 117.444511413574219 122 111 94
4.61307239532470703 3.10908007621765137 117.30242919921875 35 22 6
4.72485971450805664 3.46003437042236328 117.036338806152344 101 94 85
6.69830131530761719 3.48985004425048828 117.521049499511719 67 55 38
6.35633468627929688 3.71329236030578613 117.306655883789062 250 244 233
5.95222997665405273 2.33109426498413086 114.878334045410156 10 8 9
6.48563957214355469 3.58969449996948242 117.21588134765625 85 84 63
10.0887622833251953 0.587282955646514893 117.709846496582031 96 103 119
4.75353574752807617 3.23353838920593262 117.890213012695312 201 191 164
4.67556858062744141 0.34566575288772583 117.522178649902344 94 91 88
1.40271878242492676 0.463808774948120117 118.358238220214844 76 85 116
5.15942859649658203 2.10818243026733398 117.578971862792969 88 88 86
4.16795206069946289 3.27675652503967285 117.458549499511719 65 60 77
5.39917135238647461 3.68676567077636719 118.43536376953125 102 100 101
1.3402630090713501 2.28273177146911621 118.384025573730469 75 89 116
1.05782830715179443 3.80012392997741699 118.284660339355469 66 77 122
5.84138345718383789 3.7344968318939209 117.798652648925781 49 47 43
4.39150428771972656 1.98880136013031006 117.384506225585938 112 106 91
12.8540992736816406 2.87338042259216309 117.762741088867188 124 130 130
6.65597391128540039 2.58986210823059082 117.391738891601562 98 98 86
6.66069602966308594 3.23429226875305176 117.265846252441406 93 89 78
4.40090608596801758 3.02129507064819336 117.557746887207031 112 109 80
4.31528949737548828 0.3397788405418396 113.526153564453125 0 0 0
5.16507959365844727 0.458454012870788574 117.963584899902344 20 10 8
5.51761054992675781 0.501303374767303467 117.250205993652344 100 99 97
6.13413143157958984 0.704077422618865967 116.706878662109375 56 45 43
6.00219535827636719 3.76573657989501953 117.830581665039062 97 90 84
4.32496833801269531 3.11897563934326172 117.310920715332031 246 245 215
6.42616176605224609 3.48652839660644531 117.108390808105469 235 226 198
3.73430657386779785 0.968669414520263672 116.976165771484375 56 60 59
3.73780369758605957 0.969223260879516602 116.934707641601562 56 60 59
4.78943729400634766 2.05553340911865234 117.373908996582031 51 44 31
6.18700504302978516 0.980301797389984131 117.018653869628906 79 75 66
10.1439704895019531 2.1678621768951416 117.751945495605469 61 75 112
6.40811586380004883 3.51680588722229004 117.370964050292969 94 87 62
9.57548046112060547 2.25237917900085449 117.374557495117188 89 102 129
4.90367794036865234 2.90434145927429199 117.271438598632812 56 46 58
6.10332012176513672 1.28830289840698242 116.922325134277344 189 178 175
6.16318416595458984 0.844803214073181152 116.940742492675781 71 62 57
4.48249149322509766 2.48352670669555664 117.05230712890625 115 113 98
6.56183147430419922 3.4883124828338623 117.54974365234375 114 105 87
6.39716720581054688 2.93858766555786133 117.283294677734375 105 106 104
3.85588979721069336 0.303761780261993408 117.368293762207031 61 55 36
5.77614355087280273 0.645048618316650391 116.917228698730469 48 43 39
4.44289779663085938 2.11956644058227539 117.343864440917969 53 59 65
6.37232112884521484 2.97094869613647461 117.408493041992188 32 26 31
6.11480951309204102 1.15290844440460205 116.750274658203125 131 128 117
5.65409231185913086 2.2730259895324707 117.182159423828125 6 4 7
5.43277597427368164 0.518474996089935303 116.72430419921875 19 13 13
4.58412981033325195 3.34861159324645996 117.143669128417969 28 19 22
7.05883121490478516 2.64687418937683105 118.110763549804688 102 103 107
7.9532928466796875 3.59507989883422852 117.3472900390625 139 139 139
3.64791107177734375 0.407102614641189575 116.854644775390625 119 111 99
3.59867310523986816 0.427460998296737671 116.793388366699219 126 114 102
5.63451814651489258 0.540252625942230225 116.483650207519531 84 84 80
6.10062313079833984 1.01494705677032471 116.683395385742188 62 56 48
6.65798854827880859 2.73192763328552246 117.060676574707031 162 162 154
6.65202093124389648 2.9789423942565918 116.819137573242188 110 111 104
6.31364202499389648 3.59551024436950684 117.180770874023438 41 39 38
5.42058467864990234 0.510928153991699219 117.963645935058594 23 16 18
5.56306791305541992 2.22429847717285156 117.389259338378906 94 92 97
6.37369060516357422 2.85795402526855469 117.094818115234375 35 34 32
