ply
format ascii 1.0
element vertex 672
property float x
property float y
property float z
property uchar red
property uchar green
property uchar blue
end_header
5.43230342864990234 5.19053936004638672 43.3148002624511719 248 253 252
3.73325490951538086 2.39273238182067871 42.7548141479492188 113 135 158
0.21064835786819458 3.79710221290588379 43.8261222839355469 150 133 103
2.77293562889099121 1.44279742240905762 42.718658447265625 66 53 53
5.28778648376464844 5.37144660949707031 43.3229560852050781 147 169 187
-0.6014290452003479 1.77882444858551025 43.3009872436523438 165 149 124
5.15002965927124023 5.35011053085327148 43.2136611938476562 157 182 189
5.43936777114868164 5.43508195877075195 43.4182167053222656 166 201 222
4.86949777603149414 6.07047796249389648 43.6475944519042969 167 198 213
5.274810791015625 5.71650886535644531 43.3644599914550781 235 255 255
5.34811735153198242 5.68195247650146484 43.2789306640625 126 149 159
1.85858511924743652 0.824550390243530273 42.4800758361816406 230 244 241
1.07597768306732178 1.60042810440063477 43.200897216796875 148 138 126
6.16894054412841797 2.82738876342773438 42.6476249694824219 133 109 85
5.0740046501159668 2.85397458076477051 43.0618324279785156 126 109 81
1.55868339538574219 1.00209927558898926 42.5100021362304688 255 255 253
6.32413959503173828 2.86439728736877441 42.9765052795410156 163 145 129
1.54497265815734863 1.0638272762298584 42.553558349609375 209 219 236
5.20101499557495117 5.2936711311340332 43.3891143798828125 227 245 242
6.1695704460144043 1.64812541007995605 42.3045539855957031 101 108 118
1.54531431198120117 1.06302154064178467 42.55316162109375 209 219 236
5.26115560531616211 0.9909324049949646 42.2958755493164062 244 254 255
6.86741828918457031 -0.484023988246917725 42.0211677551269531 156 141 120
1.50035476684570312 1.50225663185119629 42.6333961486816406 214 218 197
6.14208412170410156 3.5611879825592041 42.7841949462890625 151 137 120
5.47656011581420898 1.25134110450744629 42.3135528564453125 247 255 255
2.33657026290893555 5.78680610656738281 44.0551834106445312 128 120 109
4.39240789413452148 2.87622380256652832 42.8696441650390625 0 0 0
1.41839659214019775 1.32566547393798828 42.5556716918945312 252 252 250
4.13151359558105469 2.6797947883605957 42.9993438720703125 47 51 58
4.22920703887939453 4.26238870620727539 43.4901008605957031 148 132 111
3.08420181274414062 1.51273298263549805 42.8024864196777344 78 75 66
2.23690342903137207 1.96220684051513672 42.5057601928710938 162 182 197
1.53887033462524414 1.52497518062591553 42.6221847534179688 229 232 216
4.81621170043945312 4.01342630386352539 42.8892707824707031 137 155 180
6.72870922088623047 3.95342898368835449 43.6016654968261719 142 116 99
3.56476163864135742 5.68083381652832031 43.9130020141601562 165 151 140
1.53833937644958496 1.52413380146026611 42.6148757934570312 229 232 216
2.73971939086914062 1.61817014217376709 42.6443061828613281 111 127 143
0.0443962998688220978 5.75107049942016602 44.2958297729492188 182 168 141
5.91894817352294922 -0.648053586483001709 42.4513359069824219 161 148 133
1.84131622314453125 0.742738783359527588 42.6876029968261719 110 99 88
3.57529377937316895 3.60330963134765625 43.7708015441894531 145 130 115
2.84559893608093262 1.68089938163757324 42.6859016418457031 48 58 73
6.04558324813842773 7.63223600387573242 43.7399063110351562 162 189 206
3.80825185775756836 2.25687456130981445 42.9272384643554688 56 49 43
6.11445903778076172 1.64105904102325439 42.27545166015625 54 57 71
7.0531153678894043 2.16949319839477539 42.2024574279785156 91 93 82
5.28161382675170898 1.2522737979888916 42.5872154235839844 112 97 78
6.15281200408935547 1.64740478992462158 42.277496337890625 103 108 114
6.60408687591552734 1.86672985553741455 42.253997802734375 96 108 130
6.29081869125366211 2.98899507522583008 42.828857421875 140 131 116
2.65314888954162598 5.02370071411132812 44.0240020751953125 167 154 138
3.04991698265075684 1.86298620700836182 42.5805206298828125 107 120 136
6.82103490829467773 2.02787041664123535 42.2271575927734375 66 80 91
2.73345661163330078 5.61394405364990234 44.0355072021484375 148 130 106
4.74974155426025391 3.15289735794067383 42.7504081726074219 50 68 78
3.50242328643798828 2.1584935188293457 42.6927719116210938 49 63 80
5.27180051803588867 5.91019487380981445 43.6074104309082031 113 139 163
5.46604299545288086 5.33635187149047852 43.49786376953125 201 223 220
-0.118287108838558197 4.38536882400512695 44.0152626037597656 169 162 151
5.13632583618164062 3.70207691192626953 42.7486724853515625 250 250 252
5.86990976333618164 1.66403889656066895 42.7216644287109375 117 105 89
4.88449764251708984 4.16647195816040039 43.12109375 255 252 241
4.20472145080566406 2.85908651351928711 42.9655075073242188 151 175 205
6.31109857559204102 4.51545619964599609 42.9898414611816406 158 142 126
4.8827824592590332 4.1590733528137207 43.0893630981445312 255 252 241
6.12990522384643555 0.892918169498443604 42.5433387756347656 121 114 105
5.24537754058837891 5.47418785095214844 43.3857650756835938 239 255 255
5.03402423858642578 5.65965604782104492 43.1794624328613281 180 206 213
0.51704108715057373 0.219376310706138611 42.824432373046875 138 126 102
6.43774604797363281 3.23864173889160156 42.7426109313964844 136 112 88
5.23928928375244141 5.53043270111083984 43.4375801086425781 164 186 187
4.7355961799621582 3.95811319351196289 42.2842864990234375 129 146 164
2.79703617095947266 1.46826887130737305 42.5578460693359375 67 57 55
4.88886928558349609 5.72373008728027344 43.5188446044921875 180 188 184
6.59670066833496094 5.91674041748046875 43.1618576049804688 144 130 117
5.17884969711303711 5.94110107421875 43.3915901184082031 124 144 174
1.75361156463623047 0.771608591079711914 42.4346580505371094 251 255 242
5.96335458755493164 7.70794153213500977 43.682159423828125 165 187 201
6.87208795547485352 2.13423705101013184 42.1573524475097656 149 178 185
2.35088539123535156 1.2702639102935791 42.0705604553222656 54 62 69
3.22151565551757812 2.18628454208374023 42.9560585021972656 177 204 229
1.85592329502105713 4.48506641387939453 43.8244285583496094 165 156 141
5.26082134246826172 1.10251486301422119 42.3115348815917969 254 252 255
6.36901044845581055 7.14638900756835938 43.4530105590820312 141 170 185
2.49983382225036621 1.4067155122756958 42.6020774841308594 108 119 139
2.14775228500366211 4.95644092559814453 43.9871788024902344 167 159 146
0.655187726020812988 -0.261509627103805542 42.8490943908691406 142 127 108
5.49792003631591797 1.18107879161834717 42.3048133850097656 91 108 123
3.63689160346984863 2.13054633140563965 42.7331733703613281 58 50 48
5.33598995208740234 1.30805277824401855 42.3729057312011719 125 109 86
7.13277673721313477 1.55054676532745361 42.0460281372070312 101 89 74
2.11922264099121094 3.09409713745117188 43.5039596557617188 127 113 84
4.85601615905761719 5.7624053955078125 43.5300178527832031 202 210 195
3.04036808013916016 1.64568758010864258 42.7550697326660156 61 50 54
3.33795356750488281 1.5788644552230835 42.946990966796875 71 55 38
4.86802768707275391 1.21167075634002686 42.5768089294433594 127 109 89
5.01100301742553711 5.96730661392211914 43.4222145080566406 163 188 209
3.21953415870666504 2.03155779838562012 42.6616401672363281 122 139 159
1.61134552955627441 4.81525611877441406 43.9115180969238281 149 136 117
4.92439508438110352 6.95996522903442383 43.9660148620605469 144 125 110
6.75244235992431641 2.1753089427947998 42.3836135864257812 128 109 79
5.5736699104309082 -0.292523890733718872 42.2054710388183594 152 144 131
3.36075592041015625 2.07670116424560547 42.7126350402832031 58 68 78
6.93473052978515625 2.18008923530578613 42.2064285278320312 245 254 253
5.90634250640869141 3.19328641891479492 42.8259048461914062 152 145 132
4.6230473518371582 2.59315919876098633 43.0604248046875 70 57 41
3.68624091148376465 6.20185232162475586 43.8883857727050781 165 151 140
-0.410622209310531616 2.71914052963256836 43.5963935852050781 160 154 138
5.14734554290771484 5.49270391464233398 43.3172225952148438 230 255 255
1.87705111503601074 1.82502758502960205 42.7714309692382812 126 122 115
4.41447687149047852 2.87904548645019531 42.7086677551269531 43 49 62
1.97725582122802734 0.919738709926605225 42.5887107849121094 131 143 167
4.56996822357177734 3.0457150936126709 42.7086029052734375 65 77 93
4.29328155517578125 2.7367699146270752 42.8215904235839844 84 83 87
4.96491098403930664 6.09350395202636719 43.5245094299316406 238 255 255
-0.427436113357543945 4.25417089462280273 44.0461502075195312 179 163 146
5.12111663818359375 5.49657297134399414 43.3491477966308594 146 170 197
5.98979043960571289 3.09918308258056641 42.6892814636230469 157 145 123
4.76644515991210938 6.19238901138305664 43.6691436767578125 203 213 225
5.17158603668212891 3.6135413646697998 42.7331581115722656 228 210 220
-1.13677537441253662 3.59283947944641113 43.8558616638183594 181 174 164
4.82033729553222656 4.05730009078979492 42.8690185546875 92 109 125
-0.412713974714279175 5.64435434341430664 44.2704696655273438 172 163 146
3.01437830924987793 2.62638592720031738 42.846893310546875 171 206 226
4.1380009651184082 2.21669554710388184 43.0074844360351562 61 52 37
3.9640049934387207 3.42656111717224121 43.1501350402832031 180 199 214
5.16152238845825195 5.32857418060302734 43.4032096862792969 218 229 231
5.08046960830688477 5.43631553649902344 43.4347076416015625 254 255 247
5.28149271011352539 5.04513311386108398 43.241973876953125 61 56 53
6.10480690002441406 4.42490005493164062 43.5654678344726562 153 138 119
5.04398441314697266 5.60701322555541992 43.4576988220214844 149 169 178
4.10307168960571289 2.71830058097839355 42.7742691040039062 122 143 160
5.44996023178100586 5.37498760223388672 43.3505096435546875 225 254 255
7.13864755630493164 1.8277137279510498 42.1499137878417969 146 151 155
3.24487066268920898 6.01018190383911133 44.0040550231933594 142 118 92
1.67408525943756104 0.797192156314849854 42.4651527404785156 172 191 205
1.48868656158447266 -0.688211619853973389 43.1710739135742188 157 149 138
0.114647388458251953 4.99467372894287109 44.0982894897460938 152 137 116
2.35941934585571289 1.11821794509887695 42.6354255676269531 67 57 55
4.24976062774658203 2.78120517730712891 43.0139503479003906 52 65 73
1.23203420639038086 3.30832982063293457 43.7196884155273438 162 145 126
2.89120936393737793 1.16704607009887695 43.1157722473144531 111 90 60
1.2659991979598999 3.55884933471679688 43.6596908569335938 159 146 128
8.40510272979736328 4.93281316757202148 43.6815910339355469 145 121 95
2.89020967483520508 2.53599667549133301 42.8735618591308594 179 205 221
5.19985055923461914 3.36818790435791016 42.7312850952148438 100 87 68
4.77555179595947266 3.31856560707092285 42.7831077575683594 168 200 221
5.42549037933349609 1.1127396821975708 42.2943572998046875 99 118 150
1.44270026683807373 1.39999067783355713 42.5839996337890625 74 73 79
6.60619592666625977 2.05167055130004883 42.3918190002441406 38 28 26
4.19545936584472656 5.8977971076965332 43.7431526184082031 137 121 96
8.00238513946533203 1.94634509086608887 42.6276817321777344 155 138 122
1.42246854305267334 1.46527218818664551 42.6092033386230469 47 45 41
4.41509294509887695 3.77566409111022949 42.921356201171875 174 192 202
0.405455410480499268 0.460925072431564331 42.9904594421386719 156 148 135
3.5919954776763916 1.98744499683380127 42.7029609680175781 96 89 79
4.85745429992675781 6.04880809783935547 43.5441741943359375 168 196 207
3.59205150604248047 1.98685431480407715 42.6987495422363281 96 89 79
5.22152423858642578 5.67246818542480469 43.1625556945800781 157 183 201
3.09864664077758789 -0.0746676549315452576 42.6703758239746094 133 119 106
5.48772907257080078 5.25104618072509766 43.2951850891113281 223 228 226
5.02194547653198242 3.23838686943054199 42.9401969909667969 80 84 70
3.33826708793640137 1.69537556171417236 42.825225830078125 56 46 36
-0.15680384635925293 5.58579778671264648 44.280548095703125 179 173 159
3.0945441722869873 1.92115676403045654 42.6004066467285156 127 144 160
4.11018276214599609 2.39711713790893555 42.8285484313964844 80 70 60
5.15052175521850586 3.66115880012512207 43.0855751037597656 99 101 121
5.39892578125 5.32351207733154297 43.3460655212402344 147 167 183
-0.82980036735534668 0.348818570375442505 42.8628692626953125 162 154 143
5.15804243087768555 3.49829912185668945 42.5905799865722656 75 86 104
5.38413047790527344 5.41936254501342773 43.3180809020996094 240 255 255
4.45588874816894531 2.97641324996948242 42.7229652404785156 108 128 153
5.54021692276000977 5.40566253662109375 43.3099365234375 113 130 146
3.65414905548095703 3.61256170272827148 43.158447265625 140 127 110
5.04674482345581055 5.66827583312988281 43.3555107116699219 191 212 225
3.78143453598022461 2.19228744506835938 42.7347450256347656 67 54 46
1.26242637634277344 1.86099421977996826 43.5866279602050781 153 141 129
6.67230224609375 2.02763986587524414 42.2638015747070312 51 49 55
4.46763992309570312 2.72259163856506348 43.0008926391601562 62 54 43
3.0256812572479248 0.216404885053634644 42.5915489196777344 147 138 129
7.343017578125 0.0180732645094394684 43.6061439514160156 123 110 94
5.16523551940917969 3.42973923683166504 43.0159759521484375 196 205 202
4.40324831008911133 2.95165085792541504 42.833099365234375 121 143 167
-0.371119648218154907 3.25585198402404785 43.752685546875 147 129 107
1.97012031078338623 1.86514735221862793 42.7721023559570312 173 175 183
5.18393802642822266 5.7582855224609375 43.3407936096191406 158 181 189
1.76323449611663818 1.68284440040588379 42.8648338317871094 159 161 175
5.781402587890625 3.31043791770935059 42.81536865234375 161 148 131
0.140524789690971375 2.30163764953613281 43.4088554382324219 155 150 139
5.33343982696533203 5.12262392044067383 43.2893447875976562 167 182 179
0.0286351107060909271 5.32045650482177734 44.2899894714355469 154 139 118
1.60989618301391602 1.56657624244689941 42.6748123168945312 78 87 94
5.32034540176391602 5.6499943733215332 43.341766357421875 242 255 251
5.52616643905639648 1.2086484432220459 42.350189208984375 110 122 130
5.4317779541015625 5.56562280654907227 43.3170509338378906 126 148 163
6.56193065643310547 4.03527545928955078 43.6670684814453125 158 144 131
5.74296951293945312 1.41593337059020996 42.3242950439453125 69 79 89
2.96447277069091797 1.38157796859741211 42.816375732421875 96 87 78
5.50855588912963867 1.22965288162231445 42.4117202758789062 68 81 87
3.0769500732421875 1.4127194881439209 42.8414306640625 68 55 49
1.24463331699371338 3.05463743209838867 43.5300521850585938 152 138 125
0.845556437969207764 1.72932088375091553 43.2556076049804688 150 142 129
6.28504610061645508 2.8503572940826416 42.5539970397949219 161 145 132
3.75404977798461914 2.38704609870910645 42.9331169128417969 55 75 93
5.49616527557373047 5.47446870803833008 43.3152961730957031 115 140 165
1.01570320129394531 -0.0811589062213897705 42.3498725891113281 153 145 132
5.03986167907714844 4.97788190841674805 43.4008369445800781 135 117 94
3.48992228507995605 0.225054681301116943 42.3248634338378906 146 142 127
-1.29564976692199707 5.95172357559204102 44.4742317199707031 184 168 152
4.8256068229675293 3.18629837036132812 42.7379112243652344 69 90 111
1.51878845691680908 1.87597167491912842 43.1394920349121094 147 135 119
0.0582884475588798523 6.06466102600097656 44.5466270446777344 158 140 112
6.50045156478881836 2.0231170654296875 43.6194229125976562 130 106 81
0.659172117710113525 2.39504122734069824 43.3839683532714844 165 149 133
2.41766858100891113 3.59381008148193359 43.4997367858886719 132 116 90
1.27556836605072021 5.19403457641601562 44.1139106750488281 148 137 119
0.185497120022773743 2.52787637710571289 43.4896011352539062 164 156 145
1.18428099155426025 4.07169437408447266 43.8098335266113281 167 156 138
1.26519918441772461 3.55646896362304688 43.6485633850097656 159 146 128
3.50764656066894531 4.34782934188842773 43.6325225830078125 154 138 122
4.57627248764038086 4.48679828643798828 43.2700920104980469 143 125 102
2.20838284492492676 6.20854663848876953 44.0475883483886719 145 130 108
0.13930964469909668 4.76082563400268555 43.1910133361816406 175 167 155
5.33380126953125 4.99986124038696289 43.3213768005371094 68 53 49
-0.0738375261425971985 4.62335729598999023 43.8111000061035156 158 140 118
6.55878019332885742 5.16986465454101562 43.6486396789550781 152 136 119
4.64382839202880859 5.79198503494262695 43.6069145202636719 134 116 94
1.09457767009735107 3.63337588310241699 43.6653861999511719 157 145 128
2.42208552360534668 6.39290618896484375 44.1055717468261719 167 158 146
2.89438772201538086 5.47283363342285156 43.9116935729980469 176 160 137
1.29786694049835205 1.5053105354309082 42.8738632202148438 151 139 124
3.40157032012939453 1.69276261329650879 42.9478492736816406 66 53 44
7.09515047073364258 2.84894371032714844 42.0237770080566406 0 0 0
3.57141280174255371 1.8661341667175293 42.9059333801269531 55 45 35
2.9011690616607666 -0.143858358263969421 42.7473220825195312 150 142 131
2.0061194896697998 6.72973299026489258 44.3224525451660156 162 155 139
-0.167604446411132812 2.37400984764099121 43.39697265625 161 151 137
7.87279558181762695 5.54411077499389648 43.0410232543945312 158 145 129
1.02224624156951904 1.67403280735015869 43.124237060546875 158 149 139
6.93804168701171875 2.84894108772277832 42.380157470703125 148 131 111
4.17664003372192383 3.69824075698852539 43.3589820861816406 125 104 82
6.16455507278442383 0.587326407432556152 42.1137580871582031 143 131 115
4.11629295349121094 2.70461463928222656 42.7175750732421875 56 70 83
0.0485248155891895294 3.68760013580322266 43.8442726135253906 169 154 136
6.0793004035949707 3.4675450325012207 43.7681503295898438 140 116 90
8.22277355194091797 1.86617743968963623 42.1298561096191406 154 140 127
2.27921795845031738 3.94019031524658203 43.6127052307128906 166 150 134
1.22822177410125732 2.26566934585571289 43.62554931640625 149 136 120
6.72870922088623047 3.95342898368835449 43.6016654968261719 142 116 99
8.64748287200927734 1.02155601978302002 43.5741500854492188 161 135 117
-0.269700407981872559 4.24567079544067383 44.0111770629882812 150 138 112
0.346442312002182007 3.15334892272949219 43.5280303955078125 146 131 111
5.26613807678222656 0.990769684314727783 42.2955665588378906 254 251 255
2.5968024730682373 4.07951688766479492 43.690399169921875 140 122 98
0.654727756977081299 6.66727066040039062 44.0378608703613281 162 142 117
5.72285795211791992 4.13167047500610352 43.0192604064941406 148 132 115
3.0927278995513916 3.85851407051086426 43.53497314453125 146 133 117
-1.02854204177856445 4.43408441543579102 43.9536972045898438 182 169 158
3.69944500923156738 4.41588020324707031 43.4915351867675781 145 132 114
5.63932371139526367 3.14577317237854004 42.90447998046875 138 127 109
3.76016330718994141 4.75916385650634766 43.6401290893554688 160 147 131
2.65547823905944824 5.02544403076171875 44.04876708984375 167 154 138
2.33887648582458496 6.06258869171142578 44.1043663024902344 172 161 147
0.490487188100814819 -0.307339221239089966 42.6819725036621094 163 154 148
1.74491143226623535 6.7207942008972168 44.842559814453125 160 155 136
0.51522904634475708 0.21590876579284668 42.8685989379882812 138 126 102
5.74640083312988281 0.61637580394744873 41.9684333801269531 132 110 87
4.64441633224487305 1.30918526649475098 42.5977973937988281 140 127 108
1.60332858562469482 2.28927302360534668 43.2923660278320312 147 131 115
3.84059476852416992 -0.317863374948501587 42.4687957763671875 149 142 126
3.56788873672485352 2.23584580421447754 42.8500137329101562 47 58 71
4.98108291625976562 6.13256406784057617 43.5411376953125 153 174 182
-0.410052329301834106 2.71915006637573242 43.5876541137695312 160 154 138
1.99607861042022705 3.32055997848510742 43.5751686096191406 157 141 125
1.32177746295928955 3.78336429595947266 43.750091552734375 141 125 99
-1.13343334197998047 3.58892703056335449 43.7615318298339844 181 174 164
6.33747720718383789 1.72639334201812744 42.2804298400878906 72 84 95
-0.187169194221496582 3.45789694786071777 43.7475509643554688 172 168 154
4.92510747909545898 5.61547136306762695 43.5228767395019531 73 73 61
0.8963051438331604 3.96855783462524414 43.8291854858398438 168 158 146
4.14909934997558594 2.69230055809020996 42.7072601318359375 45 53 62
5.16169834136962891 3.52490091323852539 42.8048973083496094 88 105 125
1.32157754898071289 3.78362131118774414 43.7398414611816406 140 123 101
-1.14035594463348389 4.05119180679321289 43.8942184448242188 178 173 160
4.75311851501464844 3.1041417121887207 42.4446754455566406 107 112 118
-0.427306026220321655 4.25170135498046875 44.0594940185546875 179 163 146
0.671652138233184814 5.71156978607177734 44.2777976989746094 148 131 103
3.36908817291259766 2.00922441482543945 41.6358757019042969 54 52 56
0.745855569839477539 4.05118989944458008 43.8303070068359375 146 131 108
-0.158909991383552551 5.58989238739013672 44.3167686462402344 179 173 159
4.19545936584472656 5.8977971076965332 43.7431526184082031 137 121 96
6.31906938552856445 7.62479782104492188 43.6467018127441406 237 255 255
6.43067741394042969 5.73652982711791992 43.2042808532714844 144 126 106
0.0712947621941566467 -0.142709121108055115 43.0111465454101562 158 149 134
2.37618017196655273 5.81721258163452148 44.1912078857421875 171 160 146
1.64782154560089111 0.175353378057479858 42.4383773803710938 146 138 125
3.46916651725769043 0.0882118567824363708 42.6213607788085938 144 136 125
2.45869302749633789 5.94797468185424805 44.0744132995605469 150 131 114
5.31355571746826172 7.24703407287597656 43.9353981018066406 114 93 64
-0.830860257148742676 0.347926884889602661 42.9033393859863281 162 154 143
0.049386586993932724 1.51691687107086182 43.1514968872070312 156 148 135
3.96555924415588379 -0.100728586316108704 42.5935134887695312 133 120 101
0.214856535196304321 2.9955451488494873 43.5318603515625 167 157 147
-0.647878050804138184 3.18760323524475098 43.6883049011230469 171 158 142
0.718693256378173828 5.3945465087890625 44.341705322265625 148 127 106
6.53672647476196289 7.05198144912719727 43.6249427795410156 151 183 209
3.67348170280456543 3.35310816764831543 43.3104705810546875 135 105 79
-0.515081465244293213 3.95635819435119629 43.8544807434082031 150 133 105
-0.116437919437885284 4.38289499282836914 43.9882698059082031 169 162 151
0.254435181617736816 4.64614248275756836 44.1640777587890625 153 138 117
4.2837061882019043 1.26272463798522949 42.8451271057128906 136 126 113
-0.600630521774291992 5.40597152709960938 44.3147163391113281 176 168 155
1.12843573093414307 5.45002889633178711 44.1002922058105469 177 168 153
2.89503884315490723 5.77178716659545898 44.0090484619140625 174 160 138
6.94891262054443359 5.73486328125 43.3493423461914062 150 135 114
5.39736127853393555 5.53953647613525391 43.321807861328125 231 255 255
6.49373483657836914 7.4878692626953125 43.5372314453125 164 175 180
0.48185768723487854 -0.141736879944801331 42.8987655639648438 158 148 138
3.63558411598205566 -0.189847826957702637 42.5216598510742188 135 109 92
1.80572223663330078 0.651676297187805176 42.552001953125 95 78 62
5.22214698791503906 0.7218971848487854 42.2494964599609375 124 108 83
3.99692583084106445 1.88376748561859131 42.84375 121 103 79
4.75774669647216797 5.87887001037597656 43.4285087585449219 191 210 216
0.0722517669200897217 3.32456088066101074 43.6651191711425781 142 126 101
3.75512123107910156 1.89890623092651367 43.4640350341796875 74 59 44
-1.30003774166107178 4.0031895637512207 43.7329177856445312 176 169 159
5.44210481643676758 4.5749053955078125 43.1807403564453125 145 130 109
4.40091133117675781 5.84331750869750977 43.6237678527832031 158 143 124
1.61614370346069336 2.29633259773254395 43.4357223510742188 139 132 116
2.05786418914794922 0.764493167400360107 42.6192054748535156 93 83 71
2.78465819358825684 2.72144103050231934 43.3946189880371094 120 102 78
0.146566301584243774 4.1168818473815918 43.8844757080078125 170 158 146
2.24102973937988281 -0.198761850595474243 42.802093505859375 128 113 94
5.96038484573364258 0.572439372539520264 42.3349647521972656 131 114 94
-0.895126521587371826 5.69685554504394531 44.290985107421875 179 170 157
0.187768101692199707 5.74595260620117188 44.3476066589355469 153 138 117
2.01917457580566406 2.14936614036560059 43.1680946350097656 128 109 85
0.71948474645614624 5.39239311218261719 44.3230209350585938 148 130 110
2.97115516662597656 6.07654857635498047 44.0581474304199219 170 152 128
5.49178600311279297 0.490585029125213623 42.9715080261230469 217 223 237
3.61985683441162109 5.82129669189453125 43.8955307006835938 158 149 132
5.37049436569213867 5.58912754058837891 43.3839645385742188 241 255 255
6.60781574249267578 6.71568727493286133 43.3962364196777344 232 255 255
5.43885040283203125 0.544544398784637451 41.8892326354980469 98 110 122
6.40849399566650391 1.89345204830169678 43.1979293823242188 35 29 23
5.31146621704101562 1.0408942699432373 42.27197265625 189 209 218
5.17262744903564453 5.64024591445922852 43.5732612609863281 153 186 198
1.42940843105316162 1.28154134750366211 42.6318359375 96 94 89
7.3355259895324707 3.22685837745666504 42.4869346618652344 148 133 112
5.45296621322631836 1.22431862354278564 42.26031494140625 131 143 141
5.29173803329467773 0.204975739121437073 42.3554191589355469 154 140 128
1.59696543216705322 0.939610660076141357 41.8288230895996094 98 87 103
1.43892347812652588 1.44420945644378662 42.6083335876464844 156 153 155
3.82612013816833496 2.0503237247467041 42.9085159301757812 93 95 81
2.44617772102355957 1.52800559997558594 42.7144050598144531 184 214 240
5.95896148681640625 1.48999226093292236 42.2961273193359375 70 82 94
1.59524059295654297 0.885973155498504639 42.4754447937011719 73 70 72
5.0487980842590332 5.7847743034362793 43.5777053833007812 179 212 222
1.87637364864349365 1.82834696769714355 42.8891143798828125 128 128 120
5.14911699295043945 3.42419004440307617 42.6506729125976562 188 190 179
4.21041059494018555 2.76031231880187988 42.9579086303710938 109 122 138
4.94182634353637695 4.19266176223754883 43.1716651916503906 255 254 254
5.3916935920715332 5.46836280822753906 43.2669448852539062 168 201 217
1.45906901359558105 3.71403837203979492 43.704254150390625 158 146 131
5.27785825729370117 5.66997337341308594 43.3567733764648438 150 171 185
4.79801464080810547 5.85152816772460938 43.545654296875 200 211 205
5.36111116409301758 5.66221046447753906 43.4090156555175781 232 249 251
4.59563112258911133 0.422490119934082031 42.4829368591308594 139 124 101
5.44206857681274414 1.23723387718200684 42.3392562866210938 251 253 250
4.67332601547241211 6.12143754959106445 43.6332588195800781 93 96 111
1.4713749885559082 1.50338554382324219 42.6262092590332031 91 84 77
4.71083354949951172 0.947351694107055664 42.5728492736816406 146 137 120
3.10672593116760254 2.75387334823608398 42.8741493225097656 182 192 202
6.04996633529663086 1.60592782497406006 42.3175888061523438 43 47 55
7.13498544692993164 1.58313584327697754 42.0892982482910156 216 225 232
2.06491804122924805 1.96775782108306885 42.7012443542480469 116 107 100
6.83083152770996094 2.09221696853637695 41.8895759582519531 197 228 248
1.76490378379821777 0.778273880481719971 42.5511283874511719 254 255 255
6.57301044464111328 1.90643894672393799 42.2815780639648438 94 107 119
0.342942386865615845 3.15831375122070312 43.5760574340820312 146 131 111
7.2609715461730957 1.77451550960540771 43.0548858642578125 199 208 217
3.09154963493347168 3.85649704933166504 43.5174179077148438 146 133 117
6.9897003173828125 2.0908968448638916 42.2076377868652344 196 217 240
4.24391984939575195 -0.0579641759395599365 42.4696578979492188 139 125 101
-1.17225515842437744 6.11101722717285156 44.4423751831054688 157 140 122
3.85322451591491699 2.44997358322143555 42.7744102478027344 47 55 69
-0.354557961225509644 1.56030154228210449 43.2468910217285156 144 127 108
4.94411087036132812 4.04263973236083984 43.1733169555664062 123 142 171
4.98798179626464844 4.14523172378540039 43.0290031433105469 79 71 58
4.48214435577392578 2.52769231796264648 42.95599365234375 63 49 40
0.0349748395383358002 2.97124838829040527 43.641265869140625 145 133 107
5.03195762634277344 5.74862337112426758 43.3500175476074219 187 214 219
5.25355815887451172 5.63821220397949219 43.2670059204101562 233 254 255
6.12633800506591797 2.95726966857910156 42.5421714782714844 161 148 132
2.81358480453491211 6.39191627502441406 44.1600456237792969 167 153 140
4.67432498931884766 6.06244564056396484 43.6403350830078125 188 191 195
1.71309912204742432 0.757628500461578369 42.5115623474121094 203 215 226
4.92300891876220703 0.38560137152671814 43.5032310485839844 157 146 128
1.61711561679840088 0.914928019046783447 42.5223236083984375 240 234 246
1.7453463077545166 2.51152300834655762 43.4161415100097656 148 132 111
3.02265596389770508 3.59049272537231445 43.4958763122558594 147 132 111
6.83599615097045898 2.13365960121154785 42.2478218078613281 248 255 255
4.42290782928466797 6.43865966796875 43.7863502502441406 154 143 119
2.82920074462890625 2.60851454734802246 43.5499420166015625 117 116 115
4.53098773956298828 3.07074069976806641 42.9587173461914062 134 155 176
5.04445743560791016 3.92836833000183105 42.782073974609375 233 233 235
4.93784523010253906 4.190338134765625 43.1472511291503906 255 254 254
5.38075637817382812 5.13427352905273438 43.2612762451171875 245 254 254
3.36841464042663574 6.13697099685668945 43.87921142578125 166 153 136
5.4222416877746582 5.14128351211547852 43.3118324279785156 77 78 72
6.16663694381713867 1.84979414939880371 42.657958984375 115 99 73
5.35970115661621094 5.18509244918823242 43.2848434448242188 138 165 176
4.9993739128112793 5.54954099655151367 43.4232330322265625 190 201 203
5.09558343887329102 5.54998302459716797 43.1229972839355469 144 175 193
6.28359079360961914 1.70776784420013428 42.2918510437011719 110 122 136
5.43847990036010742 5.50039815902709961 43.3414878845214844 233 255 255
5.54709815979003906 1.27972793579101562 42.6742439270019531 243 255 255
4.90809106826782227 6.13791847229003906 43.3260154724121094 159 186 197
5.26053953170776367 5.44759035110473633 43.408447265625 151 176 196
1.71705210208892822 0.720689773559570312 42.5197944641113281 41 40 26
5.22701835632324219 1.07153689861297607 42.3117218017578125 54 53 62
7.22901630401611328 3.95171904563903809 43.8766975402832031 143 117 92
5.29832744598388672 1.11344361305236816 42.26287841796875 124 133 148
5.28927040100097656 1.27167832851409912 42.403411865234375 115 107 87
6.92885971069335938 2.22052478790283203 42.2312202453613281 53 57 43
5.90335559844970703 1.47047734260559082 42.3027000427246094 104 114 124
1.4652179479598999 1.50133061408996582 42.6349716186523438 90 81 66
6.48325681686401367 1.80624902248382568 42.9726486206054688 56 64 75
6.93907308578491211 1.97960472106933594 43.0268173217773438 136 153 169
4.23213958740234375 2.27999782562255859 43.1335487365722656 70 57 38
2.88274550437927246 1.13234984874725342 43.05303955078125 118 97 68
3.40941643714904785 1.98815047740936279 42.7963905334472656 24 19 25
6.97592353820800781 2.15403342247009277 42.2320098876953125 130 152 157
6.19850444793701172 2.92158269882202148 42.5764350891113281 162 153 136
4.76220607757568359 5.78065919876098633 43.4018440246582031 56 60 69
3.63510632514953613 1.90790879726409912 42.7892303466796875 58 48 39
5.19157552719116211 5.46441793441772461 43.3864059448242188 148 167 171
4.97437667846679688 5.77014875411987305 43.3654975891113281 225 253 254
5.3983311653137207 0.564657688140869141 42.2053794860839844 90 89 110
4.90384340286254883 5.96186494827270508 43.4371109008789062 189 216 225
3.25695013999938965 1.45093178749084473 42.9156150817871094 112 95 69
5.58989858627319336 1.44816851615905762 42.3421897888183594 116 100 75
3.55313348770141602 0.138165608048439026 42.9334259033203125 143 133 123
-1.42738521099090576 3.32804417610168457 43.7557296752929688 166 159 149
5.15578603744506836 5.49088478088378906 43.3207359313964844 231 255 255
3.74639558792114258 0.252247422933578491 41.9096794128417969 148 139 125
4.34468841552734375 3.78655409812927246 42.9205551147460938 107 108 108
4.97735214233398438 5.69652795791625977 43.4239234924316406 154 174 182
6.53303146362304688 1.89713847637176514 42.2968597412109375 57 64 71
5.15968513488769531 5.79870986938476562 43.4894485473632812 150 173 181
2.57155871391296387 6.80233860015869141 44.4191436767578125 173 158 140
5.20614862442016602 5.57292509078979492 43.35589599609375 240 255 255
5.24516487121582031 5.85206413269042969 43.4388542175292969 126 148 163
1.98281431198120117 0.578263640403747559 42.741973876953125 100 85 62
3.95084357261657715 2.51770877838134766 42.9466667175292969 34 44 59
2.41714096069335938 2.17879176139831543 42.7218513488769531 165 194 208
4.57427549362182617 3.82985925674438477 43.1222381591796875 175 202 213
4.77114200592041016 5.65967655181884766 43.5741424560546875 124 111 87
4.96075296401977539 6.02165365219116211 43.459075927734375 127 156 174
2.84168672561645508 1.65937161445617676 42.6482429504394531 39 51 66
5.21199369430541992 5.78637361526489258 43.3701896667480469 239 255 255
-0.123979292809963226 5.67330074310302734 43.9693717956542969 179 171 150
2.14337277412414551 0.548278450965881348 42.5544853210449219 133 121 94
1.53470039367675781 2.66432857513427734 43.4417877197265625 150 134 119
1.52309179306030273 2.67447519302368164 43.7872581481933594 150 134 119
1.72508394718170166 0.668510735034942627 42.4469070434570312 135 118 98
5.98398876190185547 3.22032570838928223 42.7655143737792969 136 114 90
2.38854742050170898 2.06461215019226074 42.8027305603027344 163 190 212
3.02200770378112793 3.59417915344238281 43.5073318481445312 147 132 111
-0.495171815156936646 1.47870790958404541 43.1171035766601562 168 159 146
4.42925405502319336 3.77517437934875488 43.1212005615234375 169 194 214
-1.50378549098968506 3.5947873592376709 43.7145423889160156 152 138 111
1.63186240196228027 4.63103151321411133 43.9267845153808594 172 162 153
4.33406209945678711 5.46788263320922852 43.6358718872070312 154 139 126
2.81063985824584961 5.89536857604980469 44.0931625366210938 176 163 144
4.73809623718261719 4.01777219772338867 42.8191566467285156 91 114 126
4.71965789794921875 6.04394197463989258 43.6422576904296875 207 223 233
5.45671844482421875 1.16552913188934326 42.281707763671875 198 224 242
4.90074253082275391 0.88165581226348877 43.583831787109375 132 110 89
1.83606159687042236 4.96463823318481445 44.0022392272949219 135 128 118
6.03559160232543945 2.73465418815612793 43.1521873474121094 124 107 77
1.51835739612579346 1.87682521343231201 43.1263046264648438 150 138 123
2.20593881607055664 1.13846445083618164 42.6060371398925781 32 42 69
3.72723269462585449 1.93075835704803467 42.9635505676269531 78 69 60
0.967855572700500488 2.26101946830749512 43.3776512145996094 159 147 131
3.38584542274475098 1.87111401557922363 42.5554161071777344 74 63 45
3.59414529800415039 2.22805070877075195 42.8958969116210938 52 58 67
6.04413795471191406 3.99144816398620605 43.2151260375976562 147 136 108
6.55977582931518555 5.16820049285888672 43.6456832885742188 153 137 120
2.72803092002868652 5.79278469085693359 43.9840736389160156 150 133 107
-0.603047490119934082 1.78260529041290283 43.29486083984375 163 149 124
4.85115909576416016 5.67213821411132812 43.5034751892089844 75 71 59
1.50998246669769287 1.11354911327362061 42.4861106872558594 204 214 227
1.50089657306671143 6.14308881759643555 44.2661361694335938 176 164 151
4.94136524200439453 3.96155953407287598 42.5746994018554688 101 107 119
5.02731084823608398 6.13957023620605469 43.4257469177246094 118 133 157
0.800716876983642578 -0.242059484124183655 42.8614311218261719 156 146 134
0.800716876983642578 -0.242059484124183655 42.8614311218261719 156 146 134
3.36838078498840332 0.214113891124725342 42.7303199768066406 130 117 100
6.14199542999267578 0.808513224124908447 42.5458946228027344 128 106 86
1.78679764270782471 1.80328571796417236 42.9820442199707031 128 112 97
6.7274632453918457 2.47273588180541992 43.577911376953125 120 94 69
3.18188786506652832 2.92190337181091309 43.3340606689453125 130 110 86
2.45979022979736328 6.30132532119750977 43.9078788757324219 164 149 128
0.0349748395383358002 2.97124838829040527 43.641265869140625 145 133 107
7.55634880065917969 5.96794891357421875 43.21917724609375 156 141 120
5.64291620254516602 3.14102506637573242 42.8807296752929688 144 132 108
2.41855549812316895 3.59340977668762207 43.5044364929199219 132 116 90
7.15900278091430664 1.79406058788299561 42.0888900756835938 90 89 91
0.04811854287981987 3.69234418869018555 43.8867111206054688 168 154 141
-0.640210747718811035 5.51143169403076172 44.1565017700195312 182 167 150
1.54522240161895752 3.82376670837402344 43.8492584228515625 142 129 106
2.40646886825561523 3.88031125068664551 43.6137924194335938 135 119 93
2.11283063888549805 4.10902166366577148 43.7806854248046875 158 149 132
3.92228960990905762 2.54203224182128906 42.6666145324707031 113 131 158
-0.99728018045425415 4.72790718078613281 44.0557060241699219 177 164 148
2.44741654396057129 3.2663264274597168 43.6482048034667969 131 107 79
-0.293271452188491821 4.61605119705200195 44.172637939453125 155 141 115
-0.293271452188491821 4.61605119705200195 44.172637939453125 155 141 115
0.579584181308746338 4.78345489501953125 44.2520904541015625 166 161 142
-0.142490103840827942 5.18004989624023438 44.2007179260253906 173 167 152
3.8037259578704834 2.23235058784484863 42.6055412292480469 44 33 31
2.14628791809082031 4.95655727386474609 43.9795722961425781 166 159 143
2.25648164749145508 1.19640958309173584 42.5819244384765625 53 61 72
2.55037546157836914 5.14581537246704102 43.8763084411621094 148 134 107
4.87351560592651367 4.14975547790527344 43.2079887390136719 255 254 240
5.80802536010742188 5.1308140754699707 43.2309074401855469 140 124 101
1.42215895652770996 5.87767314910888672 44.2232170104980469 178 167 149
2.01200151443481445 6.06746292114257812 44.1249542236328125 169 157 141
7.04887580871582031 1.9969867467880249 42.1781692504882812 100 112 124
4.54693078994750977 -0.427953749895095825 42.4015655517578125 156 147 138
3.96367621421813965 -0.0986274480819702148 42.5860404968261719 133 120 101
4.12870025634765625 0.109071627259254456 42.9625968933105469 153 143 130
7.11530017852783203 1.94911837577819824 42.1754226684570312 63 71 70
6.80598640441894531 0.0909417197108268738 42.1322898864746094 153 141 127
3.0668489933013916 1.79420530796051025 42.6874961853027344 31 35 47
0.0554598979651927948 1.86159205436706543 43.2091560363769531 157 150 135
6.2798304557800293 0.994669318199157715 42.2611236572265625 114 114 132
0.0601342692971229553 1.85656940937042236 43.1017913818359375 157 150 135
4.38196468353271484 2.76711773872375488 42.7485847473144531 16 16 25
-0.189868032932281494 3.45790743827819824 43.7330703735351562 174 165 156
4.91066741943359375 6.33537197113037109 43.7661781311035156 104 135 155
7.5162358283996582 3.91826796531677246 43.6951255798339844 151 138 119
5.07549095153808594 4.8273005485534668 43.6616287231445312 118 106 81
6.88249731063842773 3.98351883888244629 43.6895828247070312 153 142 122
-0.872374534606933594 4.44210052490234375 43.9829864501953125 159 147 123
5.21891975402832031 5.59477090835571289 43.4384803771972656 237 254 255
3.00240492820739746 4.97407817840576172 43.7181549072265625 156 152 140
-0.295053273439407349 5.80212926864624023 44.3625106811523438 162 148 122
4.98616695404052734 5.70747852325439453 43.56048583984375 154 174 183
4.30182123184204102 2.42475461959838867 42.7178955078125 61 51 49
4.86949777603149414 6.07047796249389648 43.6475944519042969 167 198 213
-1.29671132564544678 5.95133352279663086 44.4634552001953125 184 168 152
-0.136535242199897766 5.98018550872802734 44.4362411499023438 182 176 162
-0.831334233283996582 -0.465338796377182007 42.8621368408203125 163 152 147
2.63649106025695801 1.54470348358154297 42.7267990112304688 105 122 144
1.23329508304595947 0.593358635902404785 42.8569717407226562 148 139 124
3.29517769813537598 2.05707788467407227 42.7494659423828125 100 123 147
-1.06910896301269531 3.13032913208007812 43.3812942504882812 172 163 148
0.923004627227783203 3.34770512580871582 43.6625823974609375 163 147 128
0.573726117610931396 4.08221197128295898 43.8866462707519531 164 156 142
1.58834695816040039 1.00175297260284424 42.5475921630859375 87 99 111
2.00645542144775391 4.69686269760131836 43.9541397094726562 152 137 116
4.87891483306884766 6.19355440139770508 43.3095245361328125 191 214 222
2.20581793785095215 6.20563936233520508 44.05377197265625 145 130 107
2.00645542144775391 4.69686269760131836 43.9541397094726562 152 137 116
1.45437252521514893 4.96352767944335938 43.9686203002929688 168 161 147
7.09868717193603516 1.85748112201690674 42.1623344421386719 112 128 141
3.94449400901794434 2.27916312217712402 42.6674003601074219 92 88 87
4.47086334228515625 5.00578117370605469 43.6799049377441406 133 110 87
-0.601181745529174805 5.40720415115356445 44.3105888366699219 176 167 152
5.26133155822753906 5.62789344787597656 43.2753829956054688 127 152 172
2.73214101791381836 5.61078548431396484 44.0229568481445312 148 132 103
7.02889776229858398 2.17703866958618164 42.2319297790527344 236 245 250
4.99423456192016602 4.0225067138671875 42.9212150573730469 249 248 247
4.32683658599853516 3.72268462181091309 43.2747154235839844 182 190 198
3.61859345436096191 5.8224482536315918 43.8911857604980469 158 149 132
-1.42626166343688965 3.32547736167907715 43.7502212524414062 166 159 149
5.92742395401000977 5.59375381469726562 43.2688179016113281 118 95 64
3.68139910697937012 0.522030174732208252 42.3183174133300781 130 111 96
0.069232255220413208 3.32455110549926758 43.7661552429199219 148 124 97
5.25762271881103516 3.64995145797729492 43.1051521301269531 102 96 84
3.9537813663482666 3.60957217216491699 43.3542213439941406 129 107 83
4.83586215972900391 3.15109682083129883 43.03802490234375 101 115 125
6.2060093879699707 4.16496992111206055 43.7139244079589844 133 112 88
4.08803415298461914 2.24490451812744141 42.2793960571289062 98 89 80
5.0426020622253418 3.87677407264709473 42.6861038208007812 0 0 0
6.55104637145996094 5.38946676254272461 43.0322952270507812 155 139 123
5.68478584289550781 5.28593015670776367 43.3086662292480469 117 96 65
-1.46004962921142578 5.60799312591552734 44.1709861755371094 160 144 116
5.34514188766479492 5.52580738067626953 43.5505027770996094 126 152 170
4.04641866683959961 3.54422259330749512 43.2699623107910156 120 113 110
4.85618114471435547 6.04860401153564453 43.4384117126464844 173 193 205
-0.0817212238907814026 5.71335124969482422 44.2154426574707031 171 162 145
4.56729650497436523 3.02115869522094727 43.0278739929199219 89 105 123
2.06919217109680176 1.5336681604385376 42.6121101379394531 184 214 238
6.19901323318481445 1.62830042839050293 43.0593757629394531 99 111 124
6.13781929016113281 1.73116755485534668 42.972564697265625 31 22 27
6.92093038558959961 2.07153439521789551 43.07220458984375 209 225 241
4.82446002960205078 3.07406401634216309 42.8513641357421875 79 78 73
4.74005556106567383 3.18749475479125977 42.7214431762695312 95 108 125
4.39916133880615234 2.8503110408782959 42.7482261657714844 35 47 63
4.99303483963012695 3.29247784614562988 42.6470527648925781 154 171 188
2.37241196632385254 1.28116035461425781 42.5222434997558594 46 56 66
9.19207859039306641 1.33441400527954102 43.5841865539550781 144 118 92
1.47530114650726318 1.19558894634246826 42.4580154418945312 164 169 173
5.81861400604248047 1.36901426315307617 43.2579574584960938 112 128 143
1.84040498733520508 6.46444272994995117 44.2058868408203125 144 131 112
6.87848138809204102 2.14978814125061035 42.293426513671875 241 255 255
4.32153987884521484 6.182098388671875 43.7583999633789062 154 146 135
2.88897418975830078 5.77313232421875 43.9834403991699219 175 159 144
5.47386789321899414 1.37014091014862061 42.662384033203125 129 112 95
6.3449711799621582 1.6017225980758667 43.0630226135253906 153 180 203
3.45406985282897949 2.21718811988830566 42.7192420959472656 131 145 170
5.49049806594848633 1.7476276159286499 42.2824783325195312 134 118 95
2.61887073516845703 2.30853796005249023 41.1602592468261719 174 196 211
6.61134576797485352 1.26561629772186279 42.213897705078125 166 179 202
4.86365127563476562 3.01328444480895996 42.9573097229003906 55 45 30
-0.173508748412132263 4.49244260787963867 43.7427024841308594 212 202 192
5.47831487655639648 5.52374696731567383 43.5385780334472656 227 248 245
2.56851768493652344 0.988501429557800293 42.71221923828125 71 59 46
2.49281024932861328 -0.704280376434326172 42.5774574279785156 151 145 133
2.80992984771728516 5.89915657043457031 44.1069145202636719 173 164 148
5.31012964248657227 5.77986955642700195 43.4359207153320312 138 156 167
3.88922023773193359 2.3710484504699707 42.6674461364746094 24 15 17
1.26150703430175781 1.8658822774887085 43.7355079650878906 153 141 129
0.878451883792877197 1.98535716533660889 43.3602561950683594 157 144 135
4.49552297592163086 2.99684572219848633 42.6071319580078125 72 76 82
5.39843225479125977 1.16035616397857666 42.1157188415527344 191 208 216
6.49530744552612305 3.99278736114501953 42.8351936340332031 143 140 125
6.13001537322998047 4.43226003646850586 43.2402725219726562 152 139 120
6.31214570999145508 3.83195114135742188 43.197418212890625 152 139 120
-0.323863625526428223 1.05859172344207764 43.1457290649414062 163 152 134
4.42923069000244141 0.660656332969665527 43.4888954162597656 133 118 99
4.9421238899230957 6.19673538208007812 43.5198097229003906 237 255 255
4.18462514877319336 5.52252674102783203 43.7654876708984375 137 119 98
2.68829178810119629 1.07251453399658203 42.996185302734375 40 33 24
5.29077577590942383 1.0877678394317627 42.3013381958007812 96 101 130
4.95042133331298828 4.13172340393066406 42.8159446716308594 189 183 185
-0.0857677534222602844 6.48141908645629883 43.9242782592773438 153 140 121
5.43973255157470703 1.27067279815673828 42.3225173950195312 26 27 21
3.77301692962646484 7.29490566253662109 44.3151168823242188 140 125 99
6.84187984466552734 1.3795548677444458 42.1803092956542969 150 153 159
7.10538005828857422 1.92698144912719727 42.1866035461425781 163 170 175
4.55070066452026367 2.80977225303649902 42.4960098266601562 61 48 38
3.89814424514770508 2.52632617950439453 42.8017807006835938 120 133 152
7.0741124153137207 2.08015608787536621 42.3221664428710938 134 150 166
4.18208408355712891 2.71803617477416992 42.9814186096191406 43 55 67
4.97291421890258789 3.19353580474853516 42.7396087646484375 114 121 112
4.84936952590942383 4.10678911209106445 43.1478767395019531 91 88 100
5.05235528945922852 3.96800756454467773 42.763153076171875 73 66 70
2.34997439384460449 1.0478827953338623 42.6421966552734375 51 42 31
5.37837934494018555 1.06081748008728027 42.3487052917480469 198 212 234
3.0847322940826416 1.05991697311401367 43.1567764282226562 122 109 90
5.37259006500244141 1.06613659858703613 42.3244132995605469 198 212 234
3.81338238716125488 2.46864795684814453 42.7370796203613281 120 139 155
4.81414461135864258 4.1109309196472168 43.1648712158203125 154 156 160
6.17007923126220703 1.6338045597076416 42.58685302734375 99 108 111
4.91360855102539062 4.21218395233154297 43.1778106689453125 85 74 46
5.38192605972290039 0.454705595970153809 42.1812019348144531 65 59 52
5.477294921875 1.2523726224899292 42.3066062927246094 229 239 240
6.67509031295776367 6.71839094161987305 43.3356819152832031 82 96 92
7.05665111541748047 1.93454575538635254 42.0974693298339844 117 130 149
4.76051759719848633 4.09232711791992188 42.8779449462890625 94 83 70
5.07783365249633789 5.38471508026123047 43.4278144836425781 76 72 67
5.74040031433105469 1.55776321887969971 42.4041481018066406 114 101 84
3.40855026245117188 0.473978996276855469 42.7372474670410156 140 132 125
3.75484132766723633 -0.249382108449935913 42.2311210632324219 158 146 132
3.12340378761291504 0.858698725700378418 42.7122955322265625 127 119 108
5.70144557952880859 0.704595863819122314 42.0707435607910156 159 173 192
